ply
format ascii 1.0
comment written by Chenxi
element vertex 1258
property float32 x
property float32 y
property float32 z
property uchar red
property uchar green
property uchar blue
end_header
-2.53	0.0516	4.02	250	194	145
-2.61	0.406	4.97	252	196	145
-2.66	0.534	5.14	254	201	151
-2.8	0.8	5.44	244	182	131
-2.64	0.526	5.25	254	192	143
-2.48	0.264	5.01	246	188	142
-2.62	0.526	5.32	232	170	123
-3.13	1.54	6.4	250	189	142
-2.17	-0.229	4.57	253	203	166
-2.58	0.593	5.72	251	207	158
-2.13	-0.00872	5.28	245	195	160
-2.44	0.651	6.4	239	185	151
-2.82	2.09	9.8	255	212	186
-0.96	-0.0419	7.69	180	173	121
-0.969	-0.92	7.85	178	162	129
-0.872	0.0801	7.91	54	23	3
-0.867	0.0937	7.92	170	139	111
-0.867	0.0937	7.92	170	139	111
-0.826	0.0143	8.02	191	162	128
-0.694	0.111	8.26	182	173	144
-0.673	0.229	8.31	184	174	139
-0.665	0.0774	8.33	183	174	133
-0.665	0.0774	8.33	183	174	133
-0.668	-0.817	8.5	98	112	89
-0.643	-0.425	8.45	108	123	102
-0.629	-0.409	8.48	105	124	102
-0.589	0.119	8.45	177	173	138
-0.589	0.119	8.45	177	173	138
-0.599	-1.24	8.65	99	119	108
-0.551	0.424	8.03	126	93	76
-0.488	0.122	8.57	25	6	0
-0.488	0.122	8.57	25	6	0
-0.485	0.823	9.11	220	154	93
-0.433	-0.666	8.76	203	172	167
-0.391	0.151	8.66	197	177	168
-0.391	0.151	8.66	197	177	168
-0.313	-0.977	8.88	179	159	161
-0.328	0.916	9.45	215	153	94
-0.29	-0.544	8.84	188	162	161
-0.283	-0.848	8.91	60	25	23
-0.283	-0.848	8.91	60	25	23
-0.281	-0.999	8.92	179	162	154
-0.279	-0.981	8.91	28	0	1
-0.27	-0.93	8.92	48	9	12
-0.27	-0.93	8.92	48	9	12
-0.27	0.905	9.39	228	166	107
-0.179	-0.727	8.93	182	166	169
-0.437	6.65	25	255	204	172
-0.172	0.0624	8.83	140	143	122
-0.115	-0.084	8.87	199	183	184
-0.111	-0.547	8.94	190	174	177
-0.111	-0.547	8.94	190	174	177
-0.0735	0.177	8.84	63	23	13
-0.0653	0.166	8.84	202	184	182
-0.0653	0.166	8.84	202	184	182
-0.0647	0.298	8.81	196	185	189
-0.0647	0.298	8.81	196	185	189
-0.055	0.125	8.83	195	169	172
-0.0469	0.326	8.82	201	182	188
-0.0469	0.326	8.82	201	182	188
-0.0238	0.0835	8.83	37	8	0
-0.0192	-0.163	8.9	202	184	174
-0.0192	-0.163	8.9	202	184	174
-0.0175	0.0967	8.86	139	149	122
0.0854	-0.895	9	123	134	117
0.0854	-0.895	9	123	134	117
0.112	0.301	8.85	117	141	127
0.112	0.301	8.85	117	141	127
0.109	0.694	8.78	181	145	109
0.139	-0.663	8.95	195	179	179
0.2	1.06	9.82	203	144	88
0.196	-0.169	8.85	200	179	176
0.233	-0.205	8.83	127	140	120
0.282	-0.754	8.95	118	141	121
0.288	-0.362	8.86	58	18	18
0.288	-0.362	8.86	58	18	18
0.3	-0.517	8.87	55	20	24
0.307	-0.494	8.87	48	9	2
0.331	0.297	8.7	180	198	202
0.381	-0.424	8.79	53	17	5
0.401	0.266	8.64	80	137	120
0.484	-0.128	8.62	205	196	197
0.485	-0.207	8.64	180	173	144
0.495	-0.298	8.62	190	175	172
0.505	0.266	8.51	161	200	195
0.505	0.266	8.51	161	200	195
0.519	-0.283	8.6	187	166	161
0.519	-0.283	8.6	187	166	161
0.531	-0.404	8.64	164	177	149
0.534	0.00145	8.51	184	183	165
0.564	-0.148	8.47	194	187	194
0.587	-0.136	8.44	179	171	148
0.594	-0.344	8.49	194	183	181
0.594	-0.344	8.49	194	183	181
0.591	-0.317	8.47	190	177	171
0.602	-0.525	8.52	35	7	6
0.602	-0.326	8.47	43	11	0
0.602	-0.326	8.47	43	11	0
0.6	-0.163	8.42	178	175	156
0.6	-0.163	8.42	178	175	156
0.599	-0.145	8.42	30	5	0
0.614	-0.382	8.46	185	183	158
0.614	-0.382	8.46	185	183	158
0.648	-0.6	8.44	47	19	15
0.658	-0.565	8.43	193	174	178
0.656	-0.398	8.35	41	19	0
0.671	-0.567	8.4	59	21	18
0.685	-0.553	8.36	55	23	12
0.685	-0.553	8.36	55	23	12
0.687	-0.539	8.36	208	193	188
0.693	-0.559	8.34	198	189	192
0.701	-0.14	8.18	192	181	187
0.717	-0.012	8.07	193	187	163
0.679	0.379	7.66	125	102	86
0.726	-0.00575	8.05	26	8	4
1.62	3.78	17.4	232	169	116
0.782	-0.358	8.03	52	22	11
0.782	-0.358	8.03	52	22	11
0.766	0.111	7.8	15	6	11
0.776	0.44	7.79	117	92	70
0.802	-0.43	7.96	192	176	163
0.816	-0.445	7.91	49	18	0
0.836	-0.366	7.79	209	200	205
0.842	-0.326	7.76	67	26	22
2.64	5.57	22.3	226	169	124
0.776	-0.129	5.94	111	83	59
0.82	-0.039	6.22	172	154	130
0.85	-0.0161	6.23	174	154	127
0.833	-0.147	5.79	136	108	84
1.03	0.262	7	150	129	110
1.01	0.203	6.81	142	121	100
0.909	-0.0205	6.15	163	142	115
0.932	0.0249	6.27	117	91	66
0.762	-0.4	5.03	159	136	105
0.953	0.0276	6.27	158	131	102
0.956	0.012	6.19	134	108	83
0.949	-0.0451	6	164	138	111
0.971	-0.00339	6.13	158	131	104
1.02	0.0531	6.26	131	105	80
1.36	0.732	8.22	193	151	111
1.12	0.185	6.59	160	136	112
1.04	0.00215	6.04	140	110	82
1.15	0.142	6.4	165	138	111
1.15	0.142	6.4	165	138	111
1.08	-0.0224	5.89	116	81	53
1.14	0.086	6.2	147	119	95
1.15	0.015	5.88	164	130	103
2.48	2.38	12.5	204	147	92
2.48	2.38	12.5	204	147	92
1.6	0.787	8.07	216	163	111
7.6	11.1	36.5	178	117	63
1.64	0.692	7.68	218	165	113
1.24	-0.000728	5.67	154	108	72
1.71	0.727	7.73	198	143	89
1.26	-0.0222	5.57	171	124	82
1.53	0.281	6.27	210	159	106
1.76	0.542	6.86	217	162	108
2.5	1.49	9.37	227	171	120
1.34	-0.104	5.02	175	119	68
2.01	0.757	7.22	204	147	94
1.82	0.425	6.22	205	149	92
1.52	-0.012	4.88	192	138	78
1.55	0.0125	4.91	226	170	113
2.14	0.703	6.67	211	160	107
1.36	-0.236	4.16	191	135	84
1.58	-0.000509	4.69	199	144	87
2.81	1.41	8.22	225	170	113
1.52	-0.0957	4.33	187	138	82
9.21	8.72	26	207	153	93
3.1	1.68	8.71	214	162	105
3.07	1.64	8.6	207	155	97
2.26	0.687	6.12	211	156	100
1.79	0.15	4.72	204	148	91
2.42	0.83	6.37	188	137	80
1.38	-0.295	3.59	165	121	76
1.38	-0.295	3.59	165	121	76
2.64	1.05	6.77	165	114	67
1.49	-0.18	3.81	175	127	78
3.96	2.42	9.89	213	159	99
2.06	0.379	4.88	209	159	106
2.5	0.814	5.91	205	155	104
1.83	0.134	4.31	209	160	104
2.26	0.571	5.31	219	167	107
1.77	0.0743	4.09	212	165	113
2.26	0.556	5.19	206	159	105
2.48	0.777	5.68	206	157	101
2.96	1.25	6.66	230	180	121
2.33	0.619	5.21	197	146	91
3.21	1.45	6.77	202	152	93
2.56	0.805	5.2	187	137	76
3.28	1.48	6.45	200	150	99
2.41	0.657	4.72	190	140	79
4.9	3.03	9.56	160	108	51
2.15	0.409	4.15	201	152	93
1.95	0.224	3.76	165	113	63
2.99	1.19	5.76	172	122	69
3.62	1.8	6.94	215	165	114
4.91	3.02	9.38	204	152	95
2.36	0.597	4.47	217	171	111
2.44	0.67	4.62	216	167	108
2.18	0.441	4.09	199	153	93
3.4	1.58	6.37	173	124	68
2.59	0.812	4.81	190	145	88
3.52	1.67	6.44	200	149	94
2.15	0.407	3.89	204	158	99
2.24	0.49	3.74	224	180	131
-2.52	-0.0275	3.73	247	192	136
-2.45	-0.125	3.84	231	180	137
-2.53	0.0732	4.07	237	181	130
-2.72	0.497	4.54	252	189	135
-2.66	0.396	4.63	236	173	122
-2.55	0.206	4.49	185	125	65
-2.61	0.313	4.59	239	181	133
-2.63	0.389	4.77	255	196	146
-2.63	0.389	4.77	255	196	146
-2.48	0.111	4.52	253	208	151
-2.69	0.537	4.99	255	199	147
-2.79	0.765	5.25	254	201	147
-2.45	0.148	4.76	252	211	157
-3.01	1.3	6.17	246	186	136
-3.08	1.45	6.4	255	196	146
-2.44	0.236	5.12	242	187	146
-2.6	0.54	5.47	253	192	147
-2.25	-0.0518	4.87	246	188	148
-2.65	0.739	5.99	254	207	161
-2.33	0.179	5.29	255	203	163
-2.48	0.594	6.1	255	227	181
-2.55	0.731	6.32	255	211	172
-2.55	0.731	6.32	255	211	172
-2.52	0.727	6.39	253	209	170
-2.28	0.543	6.48	218	165	133
-1.8	0.134	6.28	255	222	190
-1.94	0.454	6.91	255	223	195
-1.57	-0.1	5.95	242	200	178
-1.8	0.431	7.06	249	201	178
-1.8	0.431	7.06	249	201	178
-1.54	0.139	6.63	234	186	163
-1.04	-0.183	7.4	180	157	116
-1.01	-0.155	7.53	68	35	2
-1.01	-0.155	7.53	68	35	2
-0.948	0.0247	7.69	35	7	0
-0.941	-0.174	7.73	180	165	122
-0.935	0.0478	7.74	53	20	11
-0.923	-0.693	7.96	52	22	11
-0.906	-0.352	7.91	65	23	7
-0.901	-0.289	7.92	201	170	149
-0.881	-0.859	8.06	191	168	160
-0.847	0.108	7.96	175	158	114
-0.847	0.108	7.96	175	158	114
-0.846	-0.000155	8	186	172	133
-2.15	5.63	20.8	243	195	175
-0.84	-0.606	8.11	53	11	0
-0.84	-0.606	8.11	53	11	0
-0.829	0.131	7.99	187	170	126
-0.81	-0.0162	8.07	186	174	134
-0.81	-0.0162	8.07	186	174	134
-0.747	-0.656	8.32	106	118	96
-0.747	-0.656	8.32	106	118	96
-0.694	0.111	8.27	182	173	144
-0.659	-0.2	8.37	189	171	171
-0.645	-0.874	8.52	38	0	0
-0.645	-0.874	8.52	38	0	0
-0.631	-0.28	8.42	30	0	0
-0.631	-0.28	8.42	30	0	0
-0.627	0.106	8.39	42	13	9
-0.627	0.106	8.39	42	13	9
-1.81	7.01	25.1	247	197	174
-0.601	0.289	8.4	204	180	178
-0.606	-1.57	8.69	163	151	153
-0.606	-1.57	8.69	163	151	153
-0.893	2.35	13.1	239	171	108
-0.647	0.967	9.45	229	164	100
-0.581	-0.136	8.49	190	172	172
-0.581	-0.136	8.49	190	172	172
-0.451	0.462	8.15	137	103	78
-0.476	0.667	8.69	214	144	75
-0.462	-0.968	8.76	45	9	9
-0.44	0.122	8.63	195	172	164
-0.417	0.0361	8.66	203	177	164
-0.417	0.0361	8.66	203	177	164
-0.415	-0.246	8.7	183	167	170
-0.415	-0.246	8.7	183	167	170
-0.417	-1.07	8.81	181	166	169
-0.381	-0.54	8.78	41	1	0
-0.381	-0.54	8.78	41	1	0
-0.373	-0.667	8.79	38	2	4
-0.373	-0.667	8.79	38	2	4
-0.294	0.112	8.74	108	149	119
-0.308	0.813	9.14	223	159	98
-0.289	-0.546	8.84	180	156	156
-0.255	1.15	10.1	231	169	108
-0.215	0.581	8.49	99	66	49
-0.247	1.41	10.8	239	173	113
-0.177	-0.634	8.92	44	6	5
-0.177	-0.634	8.92	44	6	5
-0.174	-0.615	8.91	192	170	172
-0.174	-0.615	8.91	192	170	172
-0.114	-0.938	8.99	23	0	0
-0.114	-0.938	8.99	23	0	0
-0.109	-0.334	8.9	60	23	7
-0.102	-0.529	8.93	49	8	2
-0.102	-0.529	8.93	49	8	2
-0.0911	-0.096	8.88	113	136	107
-0.0796	-0.202	8.9	198	184	181
-0.0796	-0.202	8.9	198	184	181
-0.0646	-0.753	8.97	185	173	173
-0.0646	-0.753	8.97	185	173	173
-0.0491	-0.687	8.96	49	6	0
-0.0491	-0.687	8.96	49	6	0
-0.0521	0.387	8.82	120	141	122
-0.0478	0.111	8.85	64	30	20
-0.0479	-0.688	8.97	54	15	8
-0.0479	-0.688	8.97	54	15	8
-0.0416	0.273	8.83	195	180	187
-0.0336	0.856	9.23	199	142	87
-0.0336	0.856	9.23	199	142	87
-0.00654	-0.217	8.87	54	14	4
-0.00823	0.14	8.85	51	13	4
0.253	6.68	25.3	254	191	156
0.277	3.74	17.3	222	157	101
0.146	0.909	9.4	187	135	85
0.147	0.377	8.82	113	137	121
0.147	0.377	8.82	113	137	121
0.15	0.335	8.78	184	181	190
0.15	0.335	8.78	184	181	190
0.198	-0.263	8.89	183	179	176
0.198	-0.263	8.89	183	179	176
0.204	-0.966	8.99	110	139	117
0.255	0.943	9.48	208	154	107
0.255	0.943	9.48	208	154	107
0.25	-0.734	8.91	182	180	181
0.265	-0.978	8.97	112	140	125
0.278	-0.223	8.8	53	16	10
0.278	-0.223	8.8	53	16	10
1.95	16.7	53.4	240	183	153
1.95	16.7	53.4	240	183	153
0.304	-0.379	8.82	196	181	184
0.329	0.297	8.69	177	194	201
0.337	-0.474	8.83	189	175	166
0.347	-0.819	8.87	36	17	3
0.347	-0.819	8.87	36	17	3
0.353	-0.406	8.81	58	19	2
0.371	-0.824	8.9	47	28	21
0.397	-1.67	8.97	41	24	34
0.405	-0.37	8.76	58	16	2
0.405	-0.37	8.76	58	16	2
1.46	7.33	27.5	224	170	134
0.468	-0.613	8.71	187	184	191
0.517	-0.389	8.62	44	17	6
0.515	0.0265	8.56	36	14	1
0.533	-0.277	8.58	44	10	1
0.545	0.659	8.57	161	125	93
0.564	-0.031	8.48	181	184	157
0.576	-0.341	8.51	46	13	0
0.594	0.0588	8.4	185	192	174
0.599	0.567	8.29	154	127	100
0.628	-0.394	8.44	38	11	0
0.628	-0.394	8.44	38	11	0
0.653	-0.413	8.37	180	185	153
0.674	-0.661	8.41	194	188	188
0.673	0.178	8.15	166	197	199
0.699	-0.615	8.35	198	187	191
0.7	-0.544	8.32	77	39	28
0.7	-0.544	8.32	77	39	28
0.75	0.746	8.74	171	135	103
0.767	-0.945	8.27	19	19	11
0.759	-0.571	8.19	107	64	57
0.74	0.117	7.95	27	24	19
0.713	0.377	7.65	83	57	40
0.851	-0.583	7.87	193	184	185
0.882	0.531	8	158	128	102
0.869	-0.6	7.78	201	195	199
0.869	-0.6	7.78	201	195	199
1.11	1.05	9.46	223	164	106
0.935	-0.687	7.5	195	189	189
0.935	-0.687	7.5	195	189	189
0.867	0.214	7	126	103	87
0.875	0.19	6.88	124	101	87
0.896	0.214	6.95	135	112	96
0.846	0.00709	6.31	179	159	134
0.885	0.0438	6.38	126	104	81
0.908	0.0689	6.46	137	115	94
0.914	0.0641	6.41	137	115	94
0.911	0.0462	6.35	162	140	116
1.08	-1.68	7.46	252	209	175
0.904	0.00365	6.23	140	114	89
1.08	0.359	7.24	148	124	100
0.776	-0.434	4.83	179	140	99
1.02	0.0627	6.3	148	122	97
1.05	0.134	6.48	145	124	103
0.936	-0.145	5.64	155	124	93
1.02	-0.00517	6.06	153	124	94
1.17	0.291	6.9	163	136	106
1.01	-0.0345	5.95	151	120	91
1.01	-0.0345	5.95	151	120	91
1.03	-0.00919	5.99	170	141	111
1.13	0.108	6.3	156	130	105
1.14	0.0744	6.15	120	90	66
1.15	0.0286	5.96	157	126	98
1.14	0.0149	5.92	119	88	60
1.16	0.045	6	133	102	74
1.01	-0.249	5.1	171	137	99
1.02	-0.241	5.14	183	148	110
1.17	-0.00543	5.81	146	110	78
1.17	-0.00543	5.81	146	110	78
1.29	0.153	6.22	173	135	98
1.08	-0.195	5.2	188	142	93
1.21	-0.0279	5.65	171	128	86
1.46	0.29	6.47	189	141	92
1.16	-0.222	4.88	200	149	96
1.4	0.124	5.85	199	148	95
1.23	-0.147	5.07	201	146	92
1.17	-0.234	4.78	210	157	103
1.92	0.839	7.78	214	154	100
1.28	-0.109	5.13	196	142	95
1.21	-0.217	4.82	200	149	94
1.15	-0.294	4.58	201	151	100
1.41	0.0426	5.5	188	135	83
1.52	0.195	5.89	202	146	87
2.03	0.911	7.84	190	133	78
1.24	-0.207	4.75	205	152	98
24.9	32.9	92.5	217	160	107
1.24	-0.238	4.62	205	154	101
1.39	-0.0698	5	201	144	91
1.33	-0.149	4.72	186	134	84
10.1	11.4	35.2	215	160	103
1.45	-0.0368	5	203	147	90
2.18	0.808	7.05	209	158	105
2.78	1.5	8.78	201	150	95
1.55	0.0112	4.88	156	97	39
1.27	-0.333	3.97	207	158	102
1.55	0.00237	4.85	220	161	103
2.51	1.15	7.78	189	141	92
1.69	0.16	5.22	218	162	103
1.45	-0.121	4.47	180	128	71
1.45	-0.121	4.47	180	128	71
1.69	0.148	5.15	217	163	103
3.14	1.85	9.43	197	147	98
3.04	1.69	8.99	180	128	78
1.36	-0.274	3.88	175	125	74
1.75	0.15	4.93	207	151	92
1.28	-0.385	3.48	176	129	77
2.72	1.2	7.37	209	159	106
3.67	2.25	9.87	222	171	116
2.69	1.13	7.14	191	139	89
4.79	3.45	12.7	200	148	88
1.46	-0.193	3.86	175	127	78
2.39	0.796	6.25	213	162	107
2.35	0.725	6.02	204	153	98
1.95	0.301	4.96	198	152	102
1.95	0.301	4.96	198	152	102
1.46	-0.225	3.58	185	138	96
6.24	4.73	15	227	173	113
2.29	0.612	5.47	219	168	111
2.29	0.612	5.47	219	168	111
1.66	-0.0342	3.94	177	125	75
1.66	-0.0342	3.94	177	125	75
4.74	3.1	10.9	185	134	79
1.95	0.241	4.38	206	157	98
2.65	0.929	5.85	206	156	97
2.35	0.635	5.18	204	153	96
3.29	1.55	7.06	207	151	90
2.1	0.367	4.44	182	135	79
2.28	0.541	4.74	189	140	82
3.14	1.38	6.48	189	140	84
2.67	0.913	5.4	223	174	116
5.66	3.79	11.3	212	161	106
5.1	3.25	10.1	183	129	69
3.14	1.35	6.17	198	148	97
2.14	0.395	4.1	202	153	95
2.72	0.933	5.21	186	140	81
3.4	1.59	6.49	203	155	106
1.51	-0.189	2.87	161	124	80
3.03	1.22	5.72	131	78	34
2.28	0.522	4.26	195	149	90
2.28	0.522	4.26	195	149	90
2.63	0.849	4.77	132	83	42
2.05	0.31	3.62	196	153	98
2.31	0.554	3.87	186	141	99
2.31	0.554	3.87	186	141	99
2.23	0.48	3.73	189	146	95
2.5	0.731	4.08	180	136	91
-2.54	0.00182	3.72	230	175	121
-2.51	-0.023	3.84	216	161	107
-2.67	0.368	4.29	255	195	145
-2.67	0.368	4.29	255	195	145
-2.37	-0.185	4.05	250	201	160
-2.63	0.345	4.58	247	188	132
-2.64	0.385	4.63	252	195	142
-2.77	0.664	4.99	231	166	110
-2.77	0.664	4.99	231	166	110
-2.68	0.49	4.86	228	167	113
-2.68	0.49	4.86	228	167	113
-2.48	0.139	4.6	252	195	142
-2.51	0.255	4.89	236	179	134
-2.6	0.429	5.11	255	211	156
-2.61	0.475	5.22	255	199	154
-2.27	-0.063	4.77	194	141	101
-2.27	-0.063	4.77	194	141	101
-2.46	0.301	5.24	255	200	153
-2.48	0.382	5.46	255	214	165
-2.4	0.263	5.33	255	210	163
-2.4	0.283	5.39	253	196	151
-2.59	0.693	6.07	253	211	169
-2.62	0.813	6.34	255	205	166
-2.56	0.711	6.21	255	203	164
-2.27	0.212	5.54	243	182	138
-2.54	0.735	6.37	254	209	168
-2.48	0.646	6.26	254	209	170
-2.16	0.404	6.4	252	214	177
-2.96	2.28	9.97	245	192	161
-1.33	-0.646	4.81	199	154	125
-2.14	1.49	9.45	220	178	162
-1.32	0.0552	6.62	255	211	172
-2.87	3.98	15.2	255	209	186
-2.58	3.51	14.4	255	209	189
-1.1	-0.963	7.39	48	26	13
-0.965	0.000165	7.68	50	16	4
-0.917	-0.133	7.8	173	164	109
-0.917	-0.133	7.8	173	164	109
-0.902	-0.0681	7.87	194	176	136
-0.888	-0.0782	7.89	70	39	21
-0.864	-0.481	8.01	192	168	166
-0.839	-0.65	8.13	79	36	20
-0.837	-0.629	8.15	184	160	158
-1.69	5.75	21.6	245	191	165
-0.651	0.25	8.33	48	19	11
-0.637	0.0836	8.37	170	162	126
-0.556	-0.39	8.56	90	115	94
-0.541	-0.354	8.58	45	21	11
-0.529	0.597	8.48	229	160	93
-1.24	5.77	22.1	245	192	161
-0.468	-0.015	8.6	190	170	159
-0.531	1.11	9.85	240	179	116
-0.416	-0.247	8.7	184	167	173
-0.412	0.102	8.65	186	166	155
-0.412	0.102	8.65	186	166	155
-0.46	1.08	9.83	245	183	122
-0.46	1.08	9.83	245	183	122
-0.394	0.141	8.66	195	177	167
-0.347	-1.01	8.88	45	14	11
-0.291	-0.953	8.91	175	161	160
-0.291	-0.953	8.91	175	161	160
-0.288	-0.549	8.85	181	159	161
-0.288	-0.549	8.85	181	159	161
-0.237	-0.387	8.87	71	35	19
-0.224	-0.0443	8.81	46	22	10
-0.213	-0.833	8.95	67	28	21
-0.203	0.711	8.83	198	143	89
-0.173	-0.709	8.94	55	16	11
-0.173	-0.709	8.94	55	16	11
-0.317	6.49	24.6	254	199	168
-0.126	-0.695	8.94	55	21	9
-0.126	-0.695	8.94	55	21	9
-0.0948	-0.239	8.91	197	181	182
-0.0589	-0.708	8.98	191	179	179
-0.0589	-0.708	8.98	191	179	179
-0.0764	10.4	35.3	197	146	125
-0.0393	0.248	8.84	205	190	197
-0.0129	-0.288	8.92	66	25	7
-0.0129	-0.288	8.92	66	25	7
0.115	0.223	8.85	50	21	13
0.141	-0.209	8.9	53	25	13
0.149	0.335	8.78	187	184	195
0.194	1.21	10.2	233	169	107
0.23	0.592	8.49	147	121	104
0.647	5.39	21.9	224	164	127
0.273	-0.925	8.93	55	32	24
0.273	-0.507	8.88	78	38	28
0.318	-0.436	8.84	186	176	177
0.318	-0.436	8.84	186	176	177
0.332	-0.162	8.78	54	26	14
0.369	0.286	8.65	174	202	203
0.849	3.77	17.4	231	168	117
0.442	-0.114	8.66	35	5	7
0.724	1.5	11	239	171	106
0.58	-0.323	8.54	198	189	190
0.684	-0.676	8.38	110	77	72
2.06	5.98	23.7	226	171	132
0.716	-0.597	8.31	144	113	108
0.716	-0.597	8.31	144	113	108
0.693	0.134	8.1	86	149	132
0.744	-0.557	8.21	190	181	184
0.732	0.472	7.93	124	98	75
0.77	0.0684	7.8	31	20	18
0.77	0.0684	7.8	31	20	18
1.01	0.796	8.73	194	150	103
2.08	3.97	17.8	210	147	94
0.844	0.259	7.14	135	112	96
0.893	0.175	6.83	134	115	98
1.17	0.815	8.68	207	160	116
1.77	2.31	12.9	218	154	92
1.05	-1.66	7.67	198	201	210
1.47	1.54	10.7	229	163	102
0.922	0.119	6.6	152	133	116
1.01	0.328	7.22	148	127	106
0.8	-0.249	5.48	132	112	85
1.09	0.344	7.19	153	129	105
1.09	0.344	7.19	153	129	105
0.895	-0.104	5.85	133	107	80
1.15	0.351	7.12	169	142	113
2.57	3.23	15.2	231	173	125
1.14	0.125	6.34	131	103	79
0.865	-0.405	4.79	172	147	116
0.917	-0.339	4.94	160	148	122
1.05	-0.162	5.39	192	155	113
1.48	0.537	7.36	200	157	115
4.84	6.48	23.8	205	148	93
4.84	6.48	23.8	205	148	93
2.51	2.34	12.4	232	175	122
1.09	-0.172	5.29	190	143	97
0.995	-0.348	4.73	178	155	123
1.08	-0.212	5.1	201	154	112
1.07	-0.321	4.67	194	152	110
1.05	-0.38	4.48	199	149	98
1.05	-0.38	4.48	199	149	98
1.11	-0.291	4.69	201	155	106
1.2	-0.199	4.88	181	128	76
1.18	-0.265	4.62	203	148	94
1.23	-0.199	4.82	197	144	90
1.19	-0.254	4.63	211	158	104
1.19	-0.254	4.63	211	158	104
1.35	-0.0602	5.12	184	129	75
1.35	-0.0602	5.12	184	129	75
3.39	2.75	12.7	206	151	97
1.24	-0.228	4.64	195	144	91
1.28	-0.22	4.6	190	137	83
1.28	-0.219	4.6	190	137	83
1.08	-0.473	3.88	190	144	95
5.35	5.22	18.9	224	165	109
1.29	-0.225	4.53	188	136	79
1.42	-0.0621	4.96	175	118	65
2.02	0.65	6.73	214	162	112
2.02	0.65	6.73	214	162	112
3.15	2.09	10.4	154	94	40
1.38	-0.156	4.57	182	129	79
1.98	0.581	6.51	201	140	83
1.35	-0.2	4.43	194	138	87
1.46	-0.07	4.74	200	148	91
3	1.76	9.46	217	165	115
1.93	0.454	6	201	142	84
3.02	1.76	9.34	205	154	101
1.67	0.133	5.11	205	151	91
1.61	0.0547	4.9	211	156	100
3.21	1.93	9.59	196	146	93
1.45	-0.148	4.33	199	143	92
1.68	0.11	4.97	214	160	100
1.63	0.0402	4.73	217	158	98
1.32	-0.312	3.81	194	147	101
2.52	1.06	7.25	220	169	116
1.51	-0.109	4.31	190	139	86
2.53	1.04	7.22	221	170	117
2.53	1.04	7.22	221	170	117
2.86	1.41	8.12	198	150	101
1.34	-0.313	3.66	186	142	97
2.74	1.22	7.41	124	70	32
1.41	-0.253	3.71	175	128	82
2.41	0.814	6.29	191	140	85
4.92	3.52	12.7	208	156	96
2.43	0.814	6.17	196	143	89
1.89	0.213	4.69	203	154	98
1.57	-0.108	3.89	190	141	85
1.98	0.324	4.9	212	162	103
2.44	0.774	5.91	208	157	102
2.18	0.511	5.26	204	157	103
1.47	-0.217	3.54	173	129	84
1.66	-0.0243	3.95	197	146	91
1.66	-0.0243	3.95	197	146	91
1.51	-0.183	3.58	189	145	96
6.6	5.06	15.5	232	177	113
1.51	-0.188	3.5	173	127	78
1.92	0.216	4.33	186	136	77
1.94	0.23	4.36	224	175	117
1.85	0.134	4.09	200	154	95
3.09	1.37	6.8	234	183	128
2.06	0.335	4.52	205	158	104
1.55	-0.152	3.4	168	125	80
1.55	-0.152	3.4	168	125	80
2.08	0.354	4.49	188	139	81
2.08	0.349	4.39	183	136	80
2.23	0.49	4.71	202	151	94
2.29	0.56	4.82	213	166	112
2.72	0.967	5.68	218	169	111
2.56	0.81	5.32	197	148	89
2.58	0.831	5.36	221	172	114
1.91	0.177	3.86	202	156	106
2.7	0.93	5.43	195	146	87
1.37	-0.322	2.67	155	116	75
2.15	0.406	4.19	215	166	108
2.15	0.406	4.19	215	166	108
3.56	1.75	6.96	200	153	101
1.67	-0.0381	3.24	188	148	99
3.85	2	7.34	181	130	77
2.61	0.83	4.97	213	164	106
1.79	0.0742	3.41	194	150	101
3.06	1.26	5.81	175	123	75
2.47	0.696	4.65	195	145	84
3.84	1.98	7.14	209	158	103
2.37	0.606	4.33	233	185	123
1.59	-0.106	2.88	181	141	92
2.45	0.683	4.42	192	147	88
1.73	0.0277	2.96	181	140	94
3.16	1.32	5.34	193	146	94
2.19	0.447	3.55	174	132	94
2.67	0.888	4.34	193	149	100
3.19	1.37	4.87	207	160	108
-2.67	0.321	4.13	192	131	74
-2.66	0.317	4.15	208	148	88
-2.65	0.288	4.15	210	155	98
-2.55	0.0889	4.05	230	177	125
-2.41	-0.0946	4.16	220	166	120
-2.71	0.52	4.69	255	195	141
-2.33	-0.129	4.34	237	179	141
-2.42	0.0485	4.57	196	138	92
-2.42	0.0815	4.68	255	209	158
-2.75	0.716	5.37	253	212	158
-2.51	0.33	5.14	252	187	147
-2.51	0.33	5.14	252	187	147
-2.29	-0.0588	4.71	251	194	151
-2.77	0.861	5.87	246	185	140
-2.69	0.717	5.71	255	197	151
-2.52	0.435	5.45	244	185	141
-2.52	0.435	5.45	244	185	141
-2.42	0.278	5.32	255	198	153
-2.35	0.182	5.22	227	166	119
-2.29	0.143	5.3	255	193	151
-2.27	0.126	5.28	255	213	165
-2.23	0.172	5.56	255	200	163
-2.02	-0.11	5.26	251	205	169
-2.17	0.151	5.66	251	191	155
-2.19	0.263	5.91	253	211	173
-2.48	1.04	7.47	255	214	182
-2.27	0.879	7.47	254	207	179
-2.97	3.07	12.4	255	207	184
-2.97	3.14	12.6	238	190	168
-1.32	-0.345	5.6	241	192	162
-1.32	-0.0922	6.23	255	221	186
-3.2	4.22	15.3	250	202	179
-1.23	-0.162	6.11	254	191	156
-1.36	0.136	6.79	255	227	183
-3.2	4.68	16.6	255	207	184
-1.13	0.336	7.56	253	178	110
-1.1	-1.72	7.57	185	169	170
-1.06	-1.58	7.68	176	164	166
-0.846	0.128	7.97	68	33	14
-1.89	5.8	21.5	247	195	171
-0.702	0.0607	8.28	60	33	16
-0.663	-0.436	8.41	38	13	9
-0.663	-0.436	8.41	38	13	9
-0.578	0.137	8.45	50	23	12
-0.422	0.0663	8.65	194	172	161
-0.422	0.0663	8.65	194	172	161
-0.386	-0.855	8.81	183	164	166
-0.382	-1.01	8.84	46	11	7
-0.357	0.53	8.31	140	100	75
-0.357	0.53	8.31	140	100	75
-0.321	-0.786	8.85	52	17	11
-0.321	-0.786	8.85	52	17	11
-0.294	0.0895	8.75	161	162	130
-0.294	0.0895	8.75	161	162	130
-0.292	-0.982	8.91	42	13	7
-0.292	-0.982	8.91	42	13	7
-0.287	0.0408	8.76	161	136	116
-0.233	0.336	8.77	120	124	109
-0.229	0.27	8.77	53	39	26
-0.461	5.21	21.1	224	170	136
-0.188	-0.738	8.93	176	164	168
-0.188	-0.738	8.93	176	164	168
-0.175	0.0409	8.83	66	34	23
-0.168	0.363	8.8	53	36	20
-0.114	-0.214	8.87	72	30	16
-0.0863	0.545	8.43	128	101	84
-0.0345	-0.378	8.93	67	27	15
0.0926	0.764	9.04	193	149	102
0.292	5.71	22.8	228	174	140
0.216	-0.881	8.96	58	33	26
0.296	0.106	8.77	168	177	148
0.498	-0.216	8.6	61	32	18
0.647	-0.591	8.45	93	64	48
0.66	-0.797	8.48	53	39	26
1.86	5.81	23.1	216	161	120
0.717	-0.819	8.36	158	179	146
0.716	-0.597	8.31	104	73	70
0.716	-0.597	8.31	104	73	70
0.836	-0.446	7.83	72	32	20
0.804	-0.144	5.84	2	0	1
0.804	-0.144	5.84	2	0	1
0.836	-0.247	5.42	165	145	120
1.1	0.191	6.64	160	140	116
0.953	-0.109	5.76	156	123	92
1.19	0.202	6.55	166	137	107
0.925	-0.308	5.06	143	126	98
1.04	-0.113	5.62	146	107	74
1.22	0.191	6.46	169	138	109
1.07	-0.106	5.59	172	136	100
1.09	-0.0853	5.63	149	109	74
0.924	-0.388	4.76	170	149	118
1.22	0.113	6.15	160	126	98
1.27	-0.000186	5.63	192	143	100
1.27	-0.000186	5.63	192	143	100
1.32	0.0414	5.66	206	156	107
1.1	-0.291	4.69	201	155	106
2.35	1.47	9.45	227	174	122
1.34	-0.024	5.35	176	124	76
1.36	-0.0068	5.38	198	146	98
1.2	-0.232	4.72	194	141	87
1.99	0.807	7.49	206	151	97
1.38	-0.0467	5.16	201	145	94
1.37	-0.062	5.1	175	120	66
30.1	39.9	111	227	170	117
1.02	-0.537	3.75	189	146	103
1.38	-0.0808	4.96	178	123	69
1.4	-0.0712	4.96	194	137	84
1.5	0.00545	5.01	198	146	89
1.98	0.58	6.51	199	140	82
1.97	0.548	6.36	201	145	88
3.3	2.18	10.5	229	181	132
1.51	-0.0376	4.77	188	136	79
1.51	-0.0376	4.77	188	136	79
1.33	-0.253	4.13	176	125	72
1.33	-0.253	4.13	176	125	72
1.39	-0.196	4.26	195	142	90
1.35	-0.25	4.1	201	150	95
1.36	-0.237	4.13	181	127	80
1.24	-0.406	3.6	200	154	104
1.55	-0.0673	4.35	198	143	87
1.62	0.00562	4.55	203	148	91
1.81	0.193	4.9	203	147	86
1.57	-0.0748	4.18	205	154	97
4.86	3.47	12.6	220	169	114
3.48	1.96	8.97	215	166	110
1.37	-0.308	3.5	168	124	79
5.35	3.93	13.5	214	165	109
1.52	-0.146	3.85	194	148	98
2.34	0.699	5.86	195	146	90
2.46	0.82	6.14	210	159	106
2.73	1.1	6.77	197	145	87
1.71	0.0382	4.24	198	142	83
1.92	0.264	4.73	194	148	96
1.22	-0.472	3	185	147	98
2.82	1.18	6.92	203	151	91
2.39	0.722	5.78	210	155	99
1.47	-0.217	3.54	173	129	84
5.83	4.3	13.9	231	176	119
3	1.36	7.17	229	177	119
1.98	0.289	4.7	223	172	109
1.48	-0.216	3.48	188	144	97
1.57	-0.13	3.69	183	140	89
2.33	0.638	5.47	198	152	93
5.47	3.89	12.8	214	163	100
1.59	-0.11	3.69	183	140	89
2.14	0.428	4.8	190	140	81
2.29	0.58	5.13	180	131	88
1.86	0.148	4.12	195	146	90
2.76	1.02	5.94	200	152	88
2.65	0.896	5.5	189	141	77
1.48	-0.227	2.98	167	125	83
2.1	0.362	4.22	205	158	102
1.36	-0.328	2.68	171	136	94
1.37	-0.322	2.68	155	116	75
1.28	-0.404	2.49	161	127	90
1.37	-0.315	2.67	174	137	93
1.45	-0.241	2.82	160	118	78
2.41	0.645	4.66	212	166	106
2.8	1.01	5.4	195	148	92
3.21	1.4	6.15	174	127	73
1.54	-0.163	2.9	169	127	85
1.88	0.154	3.53	167	121	71
1.66	-0.0498	3.1	191	146	89
2.53	0.75	4.73	214	164	103
1.7	-0.0126	3.12	199	154	99
1.95	0.222	3.54	202	159	106
1.73	0.0196	3.09	174	132	82
1.42	-0.249	2.52	166	131	91
2.04	0.312	3.52	187	144	93
1.93	0.221	3.2	192	149	98
2.03	0.308	3.33	184	139	84
1.91	0.199	3.11	196	156	105
2.59	0.828	4	189	143	91
2.92	1.14	4.41	186	135	80
-2.32	-0.451	3.46	237	184	142
-2.55	0.0298	3.82	219	166	116
-2.48	-0.0698	3.88	139	87	40
-2.6	0.247	4.35	247	182	124
-2.57	0.225	4.48	250	188	131
-2.57	0.241	4.51	234	174	120
-2.38	-0.0755	4.35	233	182	139
-2.54	0.215	4.64	245	180	126
-2.46	0.219	4.98	222	166	117
-2.81	0.873	5.7	254	208	159
-3.04	1.34	6.19	255	198	145
-3.11	1.51	6.41	202	144	96
-2.3	0.0298	4.93	249	190	148
-2.24	-0.0334	4.93	252	205	163
-2.14	-0.204	4.73	248	196	159
-2.14	-0.204	4.73	248	196	159
-2.02	-0.379	4.52	198	148	115
-2.88	1.14	6.37	242	181	137
-2.28	0.0862	5.15	248	191	148
-2.64	0.826	6.28	255	203	165
-2.47	0.561	6.04	254	205	165
-2	-0.213	5.01	253	199	165
-2	-0.213	5.01	253	199	165
-2.01	-0.197	5.04	254	209	170
-2.22	0.27	5.83	253	205	165
-1.9	-0.131	5.4	252	212	177
-2.97	3.94	15	255	207	185
-3.94	7.52	23.5	241	191	168
-3.75	8.18	25.7	255	211	186
-1.03	0.558	8.13	254	187	119
-1.16	1.25	9.96	245	179	119
-0.897	-0.682	8.03	60	27	12
-0.882	-1.59	8.21	168	155	162
-0.831	-0.0121	8.03	75	40	21
-0.797	-0.915	8.25	63	27	11
-0.754	-0.0884	8.17	178	169	128
-0.67	-0.671	8.45	106	107	89
-0.703	1.3	10.3	241	177	116
-0.508	-0.413	8.63	69	31	22
-0.43	-1.06	8.78	36	6	4
-0.43	-1.06	8.78	36	6	4
-0.404	-0.828	8.8	41	6	0
-0.202	-0.825	8.94	65	29	17
-0.159	-0.625	8.91	71	31	21
-0.0834	-0.418	8.92	70	34	22
-0.0103	-0.0649	8.89	51	24	13
0.0421	-0.197	8.9	194	183	187
0.0822	0.3	8.82	55	33	22
0.0822	0.3	8.82	55	33	22
0.0956	-0.0308	8.86	70	37	28
0.12	0.385	8.83	53	26	17
0.12	0.385	8.83	53	26	17
0.156	-0.916	9.01	102	137	117
0.175	-0.175	8.86	73	44	30
0.328	-0.368	8.84	68	32	20
0.343	-0.964	8.88	62	40	29
0.376	-0.39	8.78	186	177	180
0.474	0.0215	8.59	59	31	20
0.498	-0.0167	8.53	166	180	145
0.522	0.738	8.82	178	143	105
0.59	0.226	8.37	166	191	198
0.606	-0.305	8.45	156	134	120
0.888	0.467	7.79	147	119	95
0.896	0.337	7.35	150	129	108
0.957	-0.775	7.24	96	54	32
0.888	-0.0192	6.16	166	145	118
1.03	-1.13	7.03	97	62	42
0.904	-0.0816	5.92	165	141	113
0.904	-0.0816	5.92	165	141	113
0.933	-0.096	5.86	155	131	103
0.933	-0.096	5.86	155	131	103
0.977	-0.0183	6.08	138	111	82
1.38	0.823	8.5	211	162	119
1.07	0.0149	6.04	125	94	66
0.909	-0.619	3.73	166	128	91
1.04	-0.487	3.93	185	138	92
0.875	-0.737	3.16	184	145	102
2.08	0.819	7.34	207	160	116
1	-0.591	3.53	168	128	92
1.53	0.0768	5.3	210	158	101
2.29	1.05	7.88	239	179	127
1.24	-0.299	4.26	183	130	76
6.87	6.72	22.1	217	161	104
1.76	0.269	5.58	204	148	89
1.41	-0.157	4.44	192	139	87
1.36	-0.263	3.97	198	147	94
0.951	-0.727	2.76	177	144	103
1.88	0.315	5.43	207	151	94
2.31	0.774	6.54	225	174	121
2.1	0.529	5.79	206	157	101
2.46	0.912	6.72	219	168	111
10.8	10.3	29.4	211	152	82
1.51	-0.137	4.03	189	139	86
1.51	-0.154	3.99	195	148	96
1.21	-0.466	3.16	159	115	68
1.21	-0.466	3.16	159	115	68
1.45	-0.226	3.72	164	120	75
1.5	-0.169	3.86	200	154	102
1.96	0.309	4.95	199	152	100
2.04	0.382	5.08	207	157	98
6.28	4.87	15.5	214	160	98
3.69	2.11	9.11	208	158	99
1.12	-0.573	2.75	168	132	98
1.28	-0.413	3.1	183	145	100
1.91	0.235	4.6	202	151	94
7.13	5.68	17.1	229	173	114
7.13	5.68	17.1	229	173	114
2.26	0.583	5.4	194	144	83
1.11	-0.569	2.64	170	137	102
1.32	-0.368	3.12	167	122	81
1.26	-0.437	2.95	174	136	91
2.93	1.23	6.7	220	170	111
2.16	0.453	4.9	198	149	91
1.41	-0.296	3.17	176	129	83
1.38	-0.316	3.1	169	122	76
1.28	-0.421	2.84	181	144	99
1.36	-0.331	3.03	171	127	82
1.35	-0.35	2.96	176	131	89
1.35	-0.35	2.96	176	131	89
3.05	1.32	6.65	220	169	112
3.75	1.98	7.85	181	135	85
1.25	-0.434	2.58	165	127	88
2.92	1.14	5.87	196	149	93
1.21	-0.453	2.3	172	138	93
1.21	-0.453	2.3	172	138	93
1.91	0.178	3.55	158	107	62
1.88	0.155	3.45	152	104	66
1.88	0.155	3.45	152	104	66
1.95	0.209	3.55	196	155	103
1.62	-0.0795	2.9	185	144	92
1.63	-0.0576	2.76	190	154	106
2.15	0.417	3.46	174	132	94
2.55	0.792	3.92	187	140	88
-2.59	0.25	4.44	200	139	84
-2.56	0.265	4.67	230	174	127
-2.56	0.261	4.71	237	181	130
-2.96	1.2	6.12	235	173	126
-2.48	0.299	5.16	255	199	152
-2.48	0.299	5.16	255	199	152
-2.91	1.13	6.21	255	198	153
-2.8	0.981	6.17	255	198	153
-2.8	1.08	6.53	255	203	163
-2.32	0.231	5.48	148	90	50
-1.59	-0.28	5.48	247	196	167
-1.43	-0.539	4.98	219	172	142
-1.51	-0.334	5.45	217	170	142
-1.46	-0.281	5.64	244	197	169
-1.46	-0.254	5.65	211	164	136
-1.24	-0.592	5.01	203	158	129
-2.73	2.88	12.3	254	212	187
-0.824	-1.42	8.3	178	163	166
-0.75	0.0218	8.19	175	172	131
-0.539	-2.83	9.19	86	114	125
-0.45	0.496	8.23	148	112	86
-0.317	-0.615	8.83	186	171	176
-0.216	-0.365	8.87	52	22	11
-0.189	0.334	8.8	55	32	18
-0.189	0.334	8.8	55	32	18
-0.116	-0.738	8.98	187	174	181
-0.116	-0.738	8.98	187	174	181
-0.039	-1.96	7.87	79	107	119
-0.0166	-0.337	8.9	189	177	181
0.127	5.6	22.3	186	133	102
0.0998	0.0379	8.85	54	36	22
0.0998	0.0379	8.85	54	36	22
0.281	0.875	9.28	208	160	112
0.312	0.293	8.73	178	192	201
1.5	6.42	24.9	234	178	141
0.617	-0.524	8.48	88	59	51
0.676	-0.597	8.35	187	187	197
2.21	5.55	22.4	212	155	112
2.03	4.76	20.1	235	176	132
2.03	4.76	20.1	235	176	132
2.13	4.22	18.4	233	171	122
2.8	4.95	20.4	222	164	116
1.03	0.439	7.56	156	130	105
0.965	0.194	6.8	144	126	106
1.32	0.307	6.72	166	130	96
1.58	0.578	7.35	215	165	116
0.844	-0.64	3.78	176	125	78
1.17	-0.193	5.01	189	137	87
1.73	0.592	7.11	210	155	101
2.59	1.71	10	213	162	117
1.27	-0.183	4.74	209	153	96
1.14	-0.404	4.07	207	160	108
0.557	-0.957	1.92	46	78	116
3.47	2.55	11.7	216	166	117
1.19	-0.372	4.03	192	144	95
3.73	2.81	12.3	226	175	128
1.49	-0.0254	4.88	188	132	71
3.39	2.34	11	232	182	133
2.6	1.28	8.15	211	161	112
1.74	0.239	5.46	203	147	88
2.08	0.631	6.48	212	162	109
1.4	-0.178	4.34	191	138	86
2.51	1.14	7.76	197	147	96
1.93	0.376	5.53	222	171	118
1.93	0.376	5.53	222	171	118
2.99	1.55	8.41	226	177	121
2.23	0.684	6.24	221	170	117
2.23	0.684	6.24	221	170	117
1.28	-0.389	3.4	180	132	83
2.47	0.876	6.49	213	161	104
2.95	1.4	7.69	222	171	118
1.11	-0.571	2.89	166	130	94
0.951	-0.732	2.43	164	126	90
1.48	-0.193	3.77	192	146	96
1.37	-0.317	3.45	168	125	83
2.42	0.782	6.07	198	146	86
1.5	-0.186	3.75	192	146	96
3.28	1.68	8.11	216	166	113
0.971	-0.712	2.37	147	116	95
1.63	-0.054	3.97	199	148	93
2.28	0.588	5.28	199	148	91
1.1	-0.591	2.52	163	127	91
1.1	-0.591	2.52	163	127	91
2.04	0.309	4.39	203	156	102
1.11	-0.569	2.38	154	118	84
2.13	0.398	4.48	203	154	98
1.32	-0.378	2.75	182	148	103
1.79	0.0701	3.71	198	151	95
3.19	1.41	6.39	212	163	107
2.55	0.788	5.1	214	165	109
1.46	-0.235	2.86	160	118	76
4.63	2.77	9.05	186	134	77
1.98	0.238	3.87	188	141	89
1.49	-0.211	2.9	162	120	78
2.12	0.38	3.83	195	149	90
1.97	0.247	3.32	204	162	112
2.09	0.362	3.37	198	158	109
3.07	1.27	4.73	202	155	103
-2.41	-0.26	3.66	240	186	142
-2.59	0.162	4.03	249	189	135
-2.46	-0.0871	3.93	234	180	133
-2.67	0.381	4.35	226	165	111
-2.46	-0.0237	4.16	253	195	147
-2.71	0.471	4.55	255	194	139
-2.37	0.0426	4.74	212	158	114
-2.53	0.51	5.65	255	201	157
-1.26	-0.764	4.61	210	169	137
-1.48	-0.335	5.47	216	169	141
-0.471	0.555	8.35	148	104	75
-0.456	-0.811	8.74	186	171	174
-0.861	10.2	34.2	242	195	175
-0.204	-0.675	8.93	192	177	184
-0.114	0.295	8.8	55	17	4
-0.108	-0.655	8.94	191	180	184
-0.108	-0.655	8.94	191	180	184
-0.104	-0.113	8.88	47	18	10
-0.104	-0.113	8.88	47	18	10
-0.0143	-0.338	8.92	191	179	183
0.162	8.94	31.5	249	196	165
0.124	-0.168	8.88	198	187	193
0.288	-0.173	8.79	194	187	194
0.288	-0.173	8.79	194	187	194
0.518	-0.288	8.59	189	169	162
0.618	-1.13	8.61	183	180	191
0.674	-1.59	8.59	56	37	33
2.39	2.06	11.6	222	165	112
1.17	-0.398	3.98	207	160	106
3.08	1.96	10.1	213	160	108
2.04	0.661	6.66	188	145	102
1.32	-0.279	4.1	198	148	95
2.02	0.536	6.14	184	140	95
1.49	-0.0867	4.51	203	150	96
1.43	-0.163	4.29	182	129	77
3.41	2.17	10.2	230	179	126
3.4	2.11	9.87	215	165	112
2.85	1.44	8.23	207	156	101
0.898	-0.785	2.36	157	127	101
4.62	3.21	11.9	207	158	102
3.3	1.73	8.34	222	172	121
1.7	0.0162	4.19	191	134	79
2.96	1.33	7.18	229	176	122
2.81	1.17	6.76	225	174	111
2.68	1.02	6.44	214	164	111
1.6	-0.0908	3.7	194	148	96
2.35	0.633	5.22	200	149	92
2.03	0.309	4.38	203	156	102
2.03	0.309	4.38	203	156	102
1.94	0.218	4.12	186	143	88
1.66	-0.0541	3.49	180	137	86
1.02	-0.651	2.13	164	137	110
1.67	-0.0384	3.21	187	146	94
2.85	1.05	5.21	180	130	81
2.03	0.304	3.67	204	159	104
1.57	-0.122	2.79	174	136	87
1.64	-0.0527	2.85	167	125	77
3.51	1.66	6.13	199	149	96
2.18	0.444	3.57	162	118	81
2.09	0.362	3.37	197	157	108
-1.54	-0.639	2.46	35	46	64
-2.6	0.204	4.25	237	178	122
-2.48	0.131	4.52	230	171	115
-2.48	0.131	4.52	230	171	115
-1.32	-0.74	2.59	78	91	108
-1.86	-0.399	4.76	251	201	166
-1.63	-0.296	5.4	238	189	159
-1.02	-0.554	7.58	68	35	20
-0.357	0.595	8.52	145	107	84
-0.274	-0.678	8.87	187	175	179
0.247	-1.67	9.06	60	40	39
0.286	-0.474	8.88	184	161	147
0.286	-0.474	8.88	184	161	147
0.399	-0.137	8.7	197	191	201
0.399	-0.137	8.7	197	191	201
0.462	-1.12	8.81	70	42	30
0.59	-0.619	8.56	201	198	207
1.18	0.896	8.92	204	152	102
1.5	0.68	7.83	189	141	93
0.963	-0.453	4.35	169	122	80
0.9	-0.568	4.01	180	138	96
3.33	2.59	12.1	217	162	106
3.05	1.66	8.74	223	171	114
4.68	3.33	12.4	213	163	104
2.57	0.902	6.18	205	158	104
0.998	-0.684	2.34	136	109	88
1.88	0.169	4.22	198	151	97
1.56	-0.149	3.33	185	144	98
1.55	-0.163	3.19	164	121	78
1.55	-0.163	3.19	164	121	78
1.94	0.209	3.98	199	153	101
1.36	-0.326	2.75	177	140	96
-2.47	-0.0779	3.93	231	177	131
-2.73	0.572	4.98	249	186	133
-2.53	0.399	5.37	255	209	158
-1.46	-0.171	5.88	228	178	153
-1.36	-0.314	5.61	227	180	152
-0.27	-1.14	2.54	41	65	91
-0.43	-0.161	8.7	196	179	185
-0.43	-0.161	8.7	196	179	185
0.146	12.5	41.5	246	195	166
0.256	-1.2	8.97	191	186	193
0.256	-1.2	8.97	191	186	193
0.696	-1.02	8.49	195	195	207
0.696	-1.02	8.49	195	195	207
0.81	-0.303	7.89	200	197	208
0.932	-0.447	4.45	167	122	83
3.76	2.56	11.1	227	177	126
3.76	2.56	11.1	227	177	126
1.3	-0.383	3.31	177	130	86
2.49	0.86	6.3	204	151	97
2.13	0.444	5.06	185	139	89
2.88	1.2	6.77	225	173	116
2.09	0.398	4.86	182	139	86
2.74	0.969	5.52	202	153	94
1.15	-0.538	2.27	176	144	106
2.47	0.698	4.6	210	160	101
-3.11	1.46	6.02	248	179	122
-0.335	-1.1	8.85	188	176	180
-0.262	-1.3	8.95	188	179	184
-0.262	-1.3	8.95	188	179	184
-0.115	-0.00677	8.86	199	188	194
1.24	4.06	18.4	208	146	95
0.386	-1.05	2.12	28	53	83
1.44	0.576	7.48	185	144	100
1.99	1.43	9.84	219	158	103
0.925	-0.754	2.53	156	116	80
2.29	0.706	6.05	194	144	91
1.21	-0.478	2.45	147	109	73
2.1	0.36	3.78	198	152	93
2.6	0.808	4.43	195	145	92
2.53	0.759	4.08	200	154	105
-0.155	-0.277	8.81	62	30	17
1.13	-0.317	4.57	197	149	100
0.527	-0.911	1.95	35	68	103
1.37	-0.33	2.91	159	115	76
1.43	-0.268	2.68	157	118	79
-1.05	-0.605	7.27	196	175	174
0.44	-1.04	2.05	44	71	101
2.53	1.24	8.05	200	152	103
0.941	-0.758	2.42	144	112	87
2.21	0.511	5.09	212	160	100
1.78	0.061	3.56	205	156	100
2.46	0.687	4.24	168	119	76
-0.853	0.948	9.2	221	153	82
4.57	3.12	11.6	211	160	103
2.36	1.52	9.67	230	177	127
