ply
format ascii 1.0
comment written by Chenxi
element vertex 1270
property float32 x
property float32 y
property float32 z
property uchar red
property uchar green
property uchar blue
end_header
-0.641	0.457	0.502	253	197	148
-0.412	0.565	0.38	244	182	131
-0.438	0.558	0.396	254	192	143
-0.432	0.561	0.393	232	170	123
-0.559	0.525	0.483	253	203	166
-0.336	0.599	0.354	210	154	119
-0.336	0.599	0.354	210	154	119
-0.334	0.6	0.352	239	185	151
-0.203	0.641	0.329	255	212	186
-0.156	0.64	0.282	206	149	119
-0.0874	0.629	0.169	180	173	121
-0.0498	0.625	0.0421	178	162	129
-0.0794	0.63	0.174	58	25	10
-0.079	0.63	0.176	41	6	4
-0.0748	0.63	0.174	54	23	3
-0.0741	0.63	0.175	170	139	111
-0.0741	0.63	0.175	170	139	111
-0.0685	0.629	0.164	191	162	128
-0.0626	0.629	0.163	198	181	138
-0.0626	0.629	0.163	198	181	138
-0.0518	0.629	0.164	182	173	144
-0.051	0.628	0.158	181	171	136
-0.0487	0.63	0.175	184	174	139
-0.0484	0.628	0.159	183	174	133
-0.0484	0.628	0.159	183	174	133
-0.0393	0.624	0.0984	108	123	102
-0.031	0.631	0.187	126	93	76
-0.0362	0.629	0.164	123	132	111
-0.0362	0.629	0.164	123	132	111
-0.0266	0.625	0.132	12	8	0
-0.0185	0.635	0.214	220	154	93
-0.0104	0.62	0.0532	203	172	167
-0.0184	0.626	0.151	197	177	168
-0.0184	0.626	0.151	197	177	168
-0.000473	0.631	0.2	173	114	56
0.00978	0.618	0.0189	60	25	23
0.00978	0.618	0.0189	60	25	23
0.00407	0.633	0.212	228	166	107
0.00993	0.642	0.251	249	179	117
0.0135	0.616	0.0318	182	166	169
0.0499	0.665	0.327	255	204	172
0.00511	0.618	0.0783	186	160	137
0.00265	0.622	0.131	140	143	122
0.00866	0.623	0.148	192	179	173
0.00868	0.622	0.143	190	175	178
0.00868	0.622	0.143	190	175	178
0.00783	0.619	0.112	199	183	184
0.0139	0.616	0.054	190	174	177
0.0139	0.616	0.054	190	174	177
0.0129	0.621	0.14	63	23	13
0.0136	0.621	0.138	202	184	182
0.0136	0.621	0.138	202	184	182
0.0152	0.622	0.152	196	185	189
0.0152	0.622	0.152	196	185	189
0.0143	0.62	0.133	195	169	172
0.0173	0.622	0.154	201	182	188
0.0173	0.622	0.154	201	182	188
0.0283	0.613	0.0146	53	15	12
0.0283	0.613	0.0146	53	15	12
0.0171	0.619	0.127	37	8	0
0.0168	0.617	0.0988	202	184	174
0.0168	0.617	0.0988	202	184	174
0.0174	0.619	0.129	139	149	122
0.0249	0.617	0.117	115	130	111
0.0319	0.619	0.146	117	141	127
0.0319	0.619	0.146	117	141	127
0.0409	0.623	0.186	181	145	109
0.0371	0.611	0.0266	195	179	179
0.0457	0.621	0.18	162	135	118
0.049	0.627	0.211	203	144	88
0.0363	0.612	0.0891	200	179	176
0.0397	0.611	0.0832	127	140	120
0.0499	0.607	0.008	118	141	121
0.0448	0.609	0.0611	58	18	18
0.0448	0.609	0.0611	58	18	18
0.0474	0.608	0.0399	55	20	24
0.0476	0.608	0.0428	48	9	2
0.0536	0.613	0.139	180	198	202
0.052	0.606	0.0489	179	155	143
0.0533	0.606	0.0489	53	17	5
0.0602	0.611	0.134	80	137	120
0.0628	0.605	0.0833	205	196	197
0.0625	0.604	0.0732	180	173	144
0.0645	0.603	0.0615	32	1	0
0.0711	0.608	0.131	161	200	195
0.0711	0.608	0.131	161	200	195
0.0656	0.603	0.0618	187	166	161
0.0656	0.603	0.0618	187	166	161
0.0663	0.602	0.0455	164	177	149
0.0695	0.604	0.0979	184	183	165
0.0712	0.602	0.0775	194	187	194
0.0734	0.601	0.0782	179	171	148
0.0728	0.6	0.054	190	177	171
0.0737	0.599	0.025	35	7	6
0.0736	0.6	0.0524	43	11	0
0.0736	0.6	0.0524	43	11	0
0.0746	0.601	0.0742	178	175	156
0.0746	0.601	0.0742	178	175	156
0.0747	0.601	0.0767	30	5	0
0.0747	0.599	0.0442	185	183	158
0.0747	0.599	0.0442	185	183	158
0.178	0.678	0.395	208	160	137
0.0793	0.596	0.0164	193	174	178
0.0793	0.597	0.0397	41	19	0
0.0804	0.596	0.0155	59	21	18
0.0818	0.595	0.0167	55	23	12
0.0818	0.595	0.0167	55	23	12
0.0827	0.595	0.0152	198	189	192
0.0863	0.596	0.0732	192	181	187
0.0909	0.596	0.0897	193	187	163
0.104	0.599	0.142	125	102	86
0.0921	0.596	0.0902	26	8	4
0.0921	0.596	0.0901	26	8	4
0.138	0.634	0.297	232	169	116
0.106	0.598	0.14	130	104	87
0.0932	0.591	0.039	52	22	11
0.0932	0.591	0.039	52	22	11
0.102	0.594	0.104	15	6	11
0.113	0.597	0.148	117	92	70
0.167	0.646	0.34	232	177	136
0.0955	0.59	0.027	192	176	163
0.103	0.59	0.0702	184	169	166
0.101	0.588	0.034	209	200	205
0.102	0.588	0.0396	67	26	22
0.106	0.587	0.0531	48	19	5
0.106	0.587	0.0531	48	19	5
0.173	0.635	0.324	226	169	124
0.143	0.597	0.197	211	158	108
0.136	0.572	0.0533	111	83	59
0.136	0.574	0.0723	172	154	130
0.139	0.573	0.0764	174	154	127
0.148	0.585	0.159	159	128	97
0.145	0.566	0.048	136	108	84
0.147	0.577	0.123	150	129	110
0.147	0.576	0.114	142	121	100
0.146	0.569	0.0749	163	142	115
0.147	0.57	0.0836	117	91	66
0.149	0.569	0.084	158	131	102
0.151	0.568	0.0809	134	108	83
0.153	0.565	0.0695	164	138	111
0.153	0.566	0.0779	158	131	104
0.156	0.566	0.0886	131	105	80
0.169	0.581	0.179	193	151	111
0.163	0.567	0.111	160	136	112
0.162	0.561	0.0788	140	110	82
0.169	0.562	0.105	165	138	111
0.169	0.562	0.105	165	138	111
0.182	0.577	0.186	197	149	100
0.169	0.556	0.0739	116	81	53
0.171	0.559	0.0948	147	119	95
0.178	0.552	0.0817	164	130	103
0.226	0.591	0.28	204	147	92
0.226	0.591	0.28	204	147	92
0.197	0.57	0.188	216	163	111
0.188	0.548	0.0946	183	143	107
0.206	0.562	0.181	218	165	113
0.21	0.564	0.194	215	158	105
0.192	0.542	0.0798	154	108	72
0.213	0.56	0.186	198	143	89
0.195	0.539	0.0757	171	124	82
0.227	0.56	0.208	218	159	101
0.234	0.555	0.209	220	161	105
0.216	0.54	0.133	210	159	106
0.235	0.541	0.172	217	162	108
0.236	0.539	0.171	220	165	111
0.272	0.553	0.258	227	171	120
0.215	0.519	0.0605	175	119	68
0.33	0.579	0.365	206	147	89
0.26	0.535	0.202	204	147	94
0.369	0.594	0.419	212	157	101
0.257	0.521	0.165	205	149	92
0.329	0.553	0.327	231	181	132
0.246	0.5	0.0884	192	138	78
0.249	0.499	0.0947	226	170	113
0.318	0.53	0.277	220	169	116
0.29	0.514	0.208	211	160	107
0.331	0.529	0.293	199	147	97
0.238	0.486	0.0305	191	135	84
0.26	0.488	0.0954	199	144	87
0.254	0.486	0.0756	204	152	95
0.335	0.517	0.28	225	170	113
0.261	0.478	0.0742	187	138	82
0.419	0.558	0.426	207	153	93
0.355	0.514	0.302	214	162	105
0.351	0.502	0.28	183	130	88
0.327	0.488	0.223	211	156	100
0.355	0.497	0.278	181	133	85
0.346	0.485	0.248	221	169	112
0.256	0.457	0.017	165	121	76
0.256	0.457	0.017	165	121	76
0.361	0.484	0.269	165	114	67
0.272	0.455	0.0565	175	127	78
0.412	0.501	0.356	213	159	99
0.304	0.456	0.131	181	126	69
0.359	0.473	0.25	214	163	108
0.359	0.473	0.25	214	163	108
0.437	0.508	0.392	222	170	110
0.342	0.452	0.195	209	159	106
0.373	0.462	0.257	205	155	104
0.321	0.445	0.147	209	160	104
0.359	0.455	0.227	219	167	107
0.32	0.438	0.135	212	165	113
0.365	0.448	0.228	206	159	105
0.381	0.453	0.258	206	157	101
0.453	0.482	0.385	186	137	81
0.412	0.458	0.309	230	180	121
0.441	0.447	0.336	202	152	93
0.478	0.466	0.4	218	165	111
0.388	0.422	0.234	197	147	88
0.348	0.406	0.15	197	150	94
0.42	0.421	0.282	187	137	76
0.421	0.406	0.27	190	140	79
0.507	0.451	0.422	160	108	51
0.402	0.396	0.232	201	152	93
0.403	0.396	0.233	217	168	109
0.403	0.396	0.233	217	168	109
0.46	0.415	0.332	172	122	69
0.486	0.427	0.377	215	165	114
0.514	0.445	0.426	204	152	95
0.424	0.396	0.266	217	171	111
0.431	0.397	0.277	216	167	108
0.413	0.388	0.242	199	153	93
0.485	0.416	0.367	173	124	68
0.447	0.395	0.299	190	145	88
0.479	0.404	0.349	166	115	60
0.42	0.375	0.242	204	158	99
0.484	0.387	0.343	202	154	105
0.43	0.364	0.25	186	137	78
0.449	0.351	0.269	224	180	131
0.503	0.371	0.359	197	150	98
0.488	0.323	0.31	182	140	92
-0.689	0.433	0.535	247	192	136
-0.641	0.454	0.5	213	158	102
-0.637	0.464	0.506	235	182	132
-0.617	0.474	0.492	237	181	130
-0.499	0.521	0.415	252	189	135
-0.521	0.52	0.437	251	190	136
-0.492	0.532	0.42	255	196	146
-0.492	0.532	0.42	255	196	146
-0.461	0.544	0.403	254	194	142
-0.46	0.545	0.403	255	199	147
-0.475	0.547	0.418	197	140	95
-0.405	0.57	0.38	255	197	151
-0.351	0.589	0.359	246	186	136
-0.46	0.554	0.411	242	187	146
-0.418	0.567	0.388	253	192	147
-0.44	0.562	0.4	254	214	162
-0.407	0.573	0.384	211	155	108
-0.407	0.573	0.384	211	155	108
-0.344	0.596	0.358	239	181	144
-0.36	0.591	0.363	255	227	181
-0.346	0.596	0.358	255	211	172
-0.346	0.596	0.358	255	211	172
-0.339	0.598	0.356	253	209	170
-0.315	0.606	0.341	218	165	133
-0.263	0.616	0.295	255	222	190
-0.248	0.622	0.303	255	223	195
-0.237	0.62	0.276	242	191	160
-0.228	0.621	0.27	255	219	190
-0.228	0.621	0.27	255	219	190
-0.198	0.626	0.255	234	186	163
-0.174	0.639	0.296	255	217	191
-0.0992	0.628	0.161	180	157	116
-0.086	0.63	0.175	35	7	0
-0.0832	0.628	0.152	180	165	122
-0.084	0.63	0.176	53	20	11
-0.081	0.628	0.158	51	22	8
-0.0612	0.625	0.0797	52	22	11
-0.0749	0.627	0.135	201	170	149
-0.0726	0.627	0.135	72	24	10
-0.0446	0.624	0.0479	191	168	160
-0.0714	0.629	0.162	54	20	10
-0.0714	0.629	0.162	54	20	10
-0.0713	0.63	0.175	175	158	114
-0.0713	0.63	0.175	175	158	114
-0.0711	0.629	0.164	186	172	133
-0.0266	0.67	0.328	243	195	175
-0.0552	0.624	0.0864	53	11	0
-0.0552	0.624	0.0864	53	11	0
-0.0689	0.63	0.176	187	170	126
-0.0662	0.629	0.159	186	174	134
-0.0662	0.629	0.159	186	174	134
-0.0421	0.624	0.0728	106	118	96
-0.0421	0.624	0.0728	106	118	96
-0.0544	0.63	0.176	78	43	23
-0.0518	0.629	0.164	182	173	144
-0.046	0.626	0.128	189	171	171
-0.0197	0.622	0.0321	38	0	0
-0.0197	0.622	0.0321	38	0	0
-0.0414	0.625	0.116	30	0	0
-0.0414	0.625	0.116	30	0	0
-0.044	0.628	0.159	42	13	9
-0.044	0.628	0.159	42	13	9
0.0043	0.671	0.332	247	197	174
-0.0426	0.626	0.136	52	20	9
-0.0426	0.626	0.136	52	20	9
-0.0398	0.63	0.176	204	180	178
-0.0405	0.628	0.162	179	164	135
-0.0215	0.652	0.28	239	171	108
-0.0324	0.639	0.228	229	164	100
-0.038	0.626	0.13	190	172	172
-0.038	0.626	0.13	190	172	172
-0.0249	0.623	0.107	93	122	94
-0.0198	0.633	0.203	214	144	75
0.00177	0.62	0.0076	45	9	9
-0.0236	0.626	0.15	195	172	164
-0.00692	0.62	0.041	41	3	0
-0.00692	0.62	0.041	41	3	0
-0.0214	0.625	0.14	203	177	164
-0.0214	0.625	0.14	203	177	164
-0.00994	0.62	0.0681	41	1	0
-0.00994	0.62	0.0681	41	1	0
-0.00492	0.62	0.0498	38	2	4
-0.00492	0.62	0.0498	38	2	4
-0.000774	0.619	0.0474	187	171	172
0.00207	0.619	0.037	179	163	163
0.00207	0.619	0.037	179	163	163
-0.00258	0.619	0.0655	56	12	9
-0.00883	0.624	0.142	108	149	119
-0.000586	0.633	0.208	223	159	98
-0.000673	0.619	0.0637	34	0	0
-0.000673	0.619	0.0637	34	0	0
0.00934	0.617	0.0326	183	163	162
0.00809	0.636	0.226	231	169	108
0.00761	0.628	0.187	99	66	49
0.012	0.638	0.239	239	173	113
0.0107	0.617	0.045	44	6	5
0.0107	0.617	0.045	44	6	5
0.0105	0.617	0.0475	192	170	172
0.0105	0.617	0.0475	192	170	172
0.0154	0.616	0.0322	191	175	175
0.0103	0.617	0.0817	60	23	7
0.0144	0.616	0.0558	49	8	2
0.0144	0.616	0.0558	49	8	2
0.01	0.619	0.11	113	136	107
0.0115	0.618	0.0968	198	184	181
0.0115	0.618	0.0968	198	184	181
0.0235	0.614	0.0229	185	173	173
0.0235	0.614	0.0229	185	173	173
0.0228	0.614	0.0317	49	6	0
0.0228	0.614	0.0317	49	6	0
0.0177	0.623	0.161	120	141	122
0.0148	0.62	0.131	64	30	20
0.0228	0.614	0.0316	54	15	8
0.0228	0.614	0.0316	54	15	8
0.017	0.621	0.149	195	180	187
0.018	0.616	0.0698	184	169	172
0.027	0.629	0.203	199	142	87
0.027	0.629	0.203	199	142	87
0.0185	0.616	0.0914	54	14	4
0.0187	0.619	0.133	51	13	4
0.0749	0.661	0.326	254	191	156
0.0284	0.616	0.113	58	28	17
0.0659	0.65	0.296	222	157	101
0.044	0.626	0.202	187	135	85
0.0367	0.619	0.153	113	137	121
0.0367	0.619	0.153	113	137	121
0.0367	0.618	0.149	184	181	190
0.0367	0.618	0.149	184	181	190
0.0364	0.612	0.0775	183	179	176
0.0364	0.612	0.0775	183	179	176
0.0542	0.624	0.203	208	154	107
0.0542	0.624	0.203	208	154	107
0.0476	0.608	0.0114	182	180	181
0.0439	0.61	0.079	53	16	10
0.0439	0.61	0.079	53	16	10
0.117	0.67	0.357	240	183	153
0.117	0.67	0.357	240	183	153
0.0466	0.608	0.058	196	181	184
0.0535	0.613	0.139	177	194	201
0.0501	0.607	0.0441	189	175	166
0.0509	0.607	0.0524	58	19	2
0.149	0.683	0.39	208	163	144
0.0552	0.606	0.0552	58	16	2
0.0552	0.606	0.0552	58	16	2
0.117	0.655	0.331	224	170	134
0.059	0.606	0.0865	35	5	7
0.063	0.603	0.0187	187	184	191
0.0655	0.602	0.0476	44	17	6
0.0675	0.605	0.102	36	14	1
0.067	0.602	0.062	44	10	1
0.0844	0.611	0.174	161	125	93
0.072	0.603	0.0928	181	184	157
0.0712	0.6	0.0513	46	13	0
0.0739	0.603	0.0946	189	184	164
0.0769	0.602	0.103	185	192	174
0.0912	0.607	0.164	154	127	100
0.0761	0.598	0.042	38	11	0
0.0761	0.598	0.042	38	11	0
0.0789	0.597	0.0378	180	185	153
0.0815	0.595	0.00152	194	188	188
0.0895	0.6	0.116	166	197	199
0.0834	0.595	0.0171	77	39	28
0.0834	0.595	0.0171	77	39	28
0.104	0.607	0.18	171	135	103
0.0894	0.592	0.00984	107	64	57
0.0971	0.596	0.106	27	24	19
0.107	0.597	0.141	83	57	40
0.1	0.587	0.00124	193	184	185
0.121	0.595	0.158	158	128	102
0.133	0.602	0.203	223	164	106
0.13	0.584	0.116	126	103	87
0.133	0.582	0.113	124	101	87
0.134	0.582	0.116	135	112	96
0.137	0.575	0.081	179	159	134
0.141	0.574	0.0875	126	104	81
0.142	0.574	0.092	137	115	94
0.143	0.573	0.091	137	115	94
0.144	0.573	0.0877	162	140	116
0.145	0.571	0.0797	140	114	89
0.15	0.579	0.136	148	124	100
0.156	0.566	0.0903	148	122	97
0.157	0.568	0.103	145	124	103
0.158	0.558	0.0471	155	124	93
0.159	0.562	0.0774	153	124	94
0.164	0.57	0.128	163	136	106
0.161	0.56	0.0714	151	120	91
0.161	0.56	0.0714	151	120	91
0.162	0.56	0.0765	170	141	111
0.168	0.561	0.0985	156	130	105
0.168	0.557	0.0728	152	117	87
0.172	0.558	0.0928	120	90	66
0.176	0.554	0.0843	157	126	98
0.176	0.553	0.0816	119	88	60
0.176	0.554	0.0875	133	102	74
0.275	0.628	0.385	217	159	109
0.176	0.542	0.02	171	137	99
0.176	0.543	0.0223	183	148	110
0.18	0.55	0.0778	146	110	78
0.18	0.55	0.0778	146	110	78
0.224	0.584	0.262	229	170	114
0.187	0.552	0.108	173	135	98
0.181	0.541	0.0345	188	142	93
0.183	0.539	0.0326	191	140	95
0.188	0.543	0.0738	171	128	86
0.203	0.548	0.132	189	141	92
0.196	0.527	0.0276	200	149	96
0.208	0.537	0.106	199	148	95
0.201	0.528	0.0478	201	146	92
0.2	0.523	0.0245	210	157	103
0.237	0.551	0.202	214	154	100
0.206	0.526	0.0578	196	142	95
0.203	0.522	0.0301	200	149	94
0.201	0.519	0.00746	201	151	100
0.215	0.528	0.0922	188	135	83
0.223	0.531	0.121	202	146	87
0.249	0.547	0.212	190	133	78
0.209	0.518	0.0332	205	152	98
0.272	0.555	0.262	214	162	114
0.211	0.514	0.0249	205	154	101
0.224	0.519	0.0851	190	135	79
0.223	0.514	0.0698	201	144	91
0.222	0.51	0.0503	186	134	84
0.359	0.592	0.408	215	160	103
0.232	0.51	0.0792	203	147	90
0.286	0.522	0.217	209	158	105
0.316	0.531	0.276	201	150	95
0.251	0.498	0.0949	156	97	39
0.251	0.497	0.0932	220	161	103
0.263	0.499	0.127	218	162	103
0.245	0.491	0.0629	180	128	71
0.245	0.491	0.0629	180	128	71
0.265	0.496	0.126	217	163	103
0.242	0.485	0.0395	189	136	86
0.242	0.485	0.0395	189	136	86
0.265	0.491	0.113	211	155	98
0.34	0.523	0.296	180	128	78
0.346	0.524	0.304	209	158	105
0.426	0.569	0.444	241	180	115
0.246	0.474	0.0209	175	125	74
0.282	0.483	0.133	207	151	92
0.35	0.499	0.274	209	159	106
0.383	0.514	0.337	222	171	116
0.353	0.494	0.271	191	139	89
0.408	0.523	0.377	200	148	88
0.265	0.461	0.0502	175	127	78
0.342	0.483	0.24	213	162	107
0.344	0.478	0.235	204	153	98
0.317	0.466	0.172	198	152	102
0.317	0.466	0.172	198	152	102
0.431	0.52	0.399	224	174	123
0.273	0.447	0.0441	185	138	96
0.314	0.454	0.147	207	162	107
0.455	0.514	0.418	227	173	113
0.357	0.46	0.23	219	168	111
0.357	0.46	0.23	219	168	111
0.344	0.435	0.176	206	157	98
0.484	0.503	0.439	208	151	82
0.35	0.43	0.181	197	151	92
0.37	0.416	0.199	204	154	95
0.37	0.416	0.199	204	154	95
0.393	0.422	0.242	189	140	82
0.446	0.439	0.335	189	140	84
0.356	0.404	0.162	197	150	94
0.429	0.422	0.296	223	174	116
0.365	0.404	0.177	187	144	93
0.508	0.466	0.435	212	161	106
0.505	0.458	0.425	183	129	69
0.331	0.394	0.106	178	137	85
0.461	0.424	0.342	198	148	97
0.48	0.421	0.364	203	155	106
0.319	0.383	0.0746	161	124	80
0.467	0.41	0.338	131	78	34
0.422	0.389	0.256	195	149	90
0.422	0.389	0.256	195	149	90
0.362	0.371	0.144	174	134	83
0.489	0.405	0.364	184	134	81
0.413	0.366	0.226	196	153	98
0.366	0.361	0.144	188	146	96
0.366	0.361	0.144	188	146	96
0.51	0.393	0.382	184	134	81
0.406	0.355	0.207	190	149	95
0.505	0.383	0.37	178	128	77
0.479	0.365	0.322	211	163	117
0.447	0.352	0.267	189	146	95
0.506	0.333	0.341	208	158	105
-0.602	0.473	0.475	236	179	126
-0.584	0.497	0.48	255	201	148
-0.45	0.546	0.394	231	166	110
-0.45	0.546	0.394	231	166	110
-0.474	0.538	0.409	228	167	113
-0.474	0.538	0.409	228	167	113
-0.49	0.539	0.425	236	179	134
-0.456	0.551	0.405	255	211	156
-0.443	0.556	0.399	255	199	154
-0.445	0.56	0.403	255	200	153
-0.445	0.561	0.404	252	193	149
-0.399	0.576	0.38	255	201	156
-0.42	0.569	0.39	255	214	165
-0.432	0.566	0.397	255	210	163
-0.4	0.576	0.381	255	208	162
-0.425	0.569	0.393	253	196	151
-0.405	0.575	0.383	255	200	155
-0.366	0.588	0.366	253	211	169
-0.354	0.593	0.362	255	203	164
-0.399	0.579	0.379	243	182	138
-0.343	0.597	0.357	254	209	168
-0.347	0.596	0.358	254	209	170
-0.334	0.6	0.351	255	210	176
-0.309	0.607	0.334	252	214	177
-0.204	0.642	0.332	245	192	161
-0.176	0.652	0.337	255	206	176
-0.211	0.638	0.327	255	222	187
-0.183	0.616	0.152	199	154	125
-0.214	0.626	0.276	255	205	174
-0.172	0.642	0.305	220	178	162
-0.158	0.628	0.223	255	211	172
-0.103	0.663	0.328	255	209	186
-0.102	0.661	0.322	255	209	189
-0.138	0.631	0.222	254	204	143
-0.0608	0.625	0.0398	48	26	13
-0.085	0.626	0.119	63	31	16
-0.0885	0.63	0.174	50	16	4
-0.0656	0.625	0.0784	166	153	118
-0.0802	0.628	0.155	173	164	109
-0.0802	0.628	0.155	173	164	109
-0.0786	0.629	0.161	194	176	136
-0.0762	0.637	0.224	253	178	111
-0.0765	0.628	0.159	70	39	21
-0.0638	0.625	0.106	192	168	166
-0.0724	0.63	0.171	71	36	16
-0.0724	0.63	0.171	71	36	16
-0.053	0.624	0.08	79	36	20
-0.0539	0.624	0.0831	184	160	158
-0.0445	0.624	0.076	55	26	8
-0.00546	0.669	0.326	245	191	165
-0.0459	0.63	0.175	48	19	11
-0.0452	0.628	0.158	170	162	126
-0.0348	0.624	0.108	186	168	166
-0.0309	0.623	0.0976	90	115	94
-0.0303	0.623	0.101	45	21	11
-0.0264	0.633	0.201	229	160	93
0.0124	0.667	0.323	245	192	161
-0.0266	0.625	0.137	190	170	159
-0.0181	0.639	0.232	240	179	116
-0.0166	0.621	0.0686	180	164	164
-0.0195	0.623	0.108	184	167	173
-0.0208	0.626	0.147	186	166	155
-0.0208	0.626	0.147	186	166	155
-0.012	0.638	0.228	245	183	122
-0.012	0.638	0.228	245	183	122
-0.0188	0.626	0.15	195	177	167
-0.000442	0.619	0.0811	71	35	19
-0.00233	0.622	0.122	46	22	10
-2.94e-05	0.619	0.0882	188	174	174
0.0147	0.617	0.018	67	28	21
0.00947	0.63	0.197	198	143	89
0.0533	0.664	0.325	254	199	168
0.0168	0.616	0.0339	55	21	9
0.0168	0.616	0.0339	55	21	9
0.0104	0.618	0.0929	197	181	182
0.0225	0.614	0.0292	191	179	179
0.0225	0.614	0.0292	191	179	179
0.0749	0.67	0.344	197	146	125
0.0169	0.621	0.146	205	190	197
0.0181	0.616	0.0832	66	25	7
0.0181	0.616	0.0832	66	25	7
0.066	0.66	0.321	231	179	142
0.031	0.618	0.138	50	21	13
0.0311	0.613	0.0866	53	25	13
0.0346	0.617	0.141	181	180	186
0.0346	0.617	0.141	181	180	186
0.0366	0.618	0.149	187	184	195
0.0488	0.629	0.221	233	169	107
0.0481	0.619	0.171	141	115	98
0.0534	0.618	0.174	147	121	104
0.0875	0.654	0.316	224	164	127
0.0473	0.608	0.047	70	36	24
0.0481	0.608	0.0499	186	176	177
0.0481	0.608	0.0499	186	176	177
0.0575	0.612	0.137	174	202	203
0.0963	0.644	0.295	231	168	117
0.059	0.606	0.0865	35	5	7
0.0932	0.623	0.231	239	171	106
0.071	0.601	0.0541	198	189	190
0.0778	0.598	0.043	193	189	190
0.0778	0.598	0.043	193	189	190
0.144	0.644	0.323	226	171	132
0.0851	0.594	0.00851	144	113	108
0.0851	0.594	0.00851	144	113	108
0.0912	0.598	0.11	86	149	132
0.0881	0.593	0.0124	190	181	184
0.107	0.6	0.152	124	98	75
0.193	0.67	0.392	218	165	131
0.101	0.593	0.0985	31	20	18
0.101	0.593	0.0985	31	20	18
0.129	0.599	0.183	194	150	103
0.126	0.587	0.123	135	112	96
0.128	0.585	0.118	125	102	86
0.135	0.58	0.11	134	115	98
0.144	0.593	0.185	207	160	116
0.167	0.612	0.266	218	154	92
0.157	0.603	0.234	229	163	102
0.141	0.576	0.101	152	133	116
0.143	0.581	0.132	148	127	106
0.147	0.562	0.0228	132	112	85
0.152	0.578	0.134	153	129	105
0.152	0.578	0.134	153	129	105
0.15	0.565	0.0572	133	107	80
0.159	0.574	0.136	169	142	113
0.207	0.609	0.298	231	173	125
0.169	0.562	0.102	131	103	79
0.171	0.549	0.0385	180	145	107
0.175	0.547	0.0426	192	155	113
0.192	0.564	0.162	200	157	115
0.262	0.612	0.352	205	148	93
0.262	0.612	0.352	205	148	93
0.229	0.59	0.279	232	175	122
0.18	0.542	0.0404	190	143	97
0.184	0.538	0.0297	201	154	112
0.186	0.532	0.00705	167	132	92
0.194	0.525	0.00786	201	155	106
0.201	0.524	0.0342	181	128	76
0.204	0.518	0.0161	203	148	94
0.206	0.52	0.0352	197	144	90
0.206	0.517	0.0193	211	158	104
0.206	0.517	0.0193	211	158	104
0.217	0.523	0.0809	181	125	74
0.217	0.52	0.0706	184	129	75
0.217	0.52	0.0706	184	129	75
0.296	0.568	0.313	206	151	97
0.211	0.514	0.0276	195	144	91
0.211	0.511	0.0148	197	142	86
0.217	0.509	0.0283	202	149	97
0.217	0.509	0.0313	190	137	83
0.217	0.509	0.0314	190	137	83
0.335	0.577	0.367	224	165	109
0.219	0.507	0.0299	188	136	79
0.228	0.511	0.0728	175	118	65
0.272	0.523	0.196	214	162	112
0.272	0.523	0.196	214	162	112
0.317	0.546	0.301	154	94	40
0.232	0.501	0.0507	182	129	79
0.272	0.519	0.189	201	140	83
0.231	0.498	0.0389	194	138	87
0.24	0.5	0.0739	200	148	91
0.237	0.495	0.0522	184	128	77
0.323	0.534	0.291	217	165	115
0.279	0.508	0.176	201	142	84
0.329	0.531	0.293	205	154	101
0.264	0.496	0.123	205	151	91
0.26	0.493	0.107	211	156	100
0.34	0.53	0.305	226	176	127
0.403	0.571	0.425	212	157	100
0.403	0.571	0.425	212	157	100
0.343	0.528	0.307	196	146	93
0.248	0.485	0.0572	199	143	92
0.269	0.491	0.12	214	160	100
0.268	0.485	0.106	217	158	98
0.317	0.504	0.234	211	160	107
0.241	0.475	0.00729	194	147	101
0.327	0.507	0.254	220	169	116
0.259	0.479	0.07	190	139	86
0.344	0.511	0.283	198	150	101
0.364	0.512	0.31	206	156	105
0.248	0.465	0.00878	186	142	97
0.352	0.499	0.276	124	70	32
0.337	0.491	0.244	219	168	111
0.307	0.478	0.174	183	139	92
0.388	0.511	0.339	232	182	123
0.259	0.459	0.0312	175	128	82
0.371	0.497	0.3	205	155	102
0.344	0.483	0.243	191	140	85
0.418	0.519	0.383	208	156	96
0.352	0.478	0.247	196	143	89
0.419	0.511	0.376	225	174	117
0.315	0.459	0.158	203	154	98
0.285	0.451	0.0801	190	141	85
0.327	0.46	0.18	212	162	103
0.405	0.486	0.329	215	164	109
0.363	0.467	0.249	208	157	102
0.348	0.459	0.214	204	157	103
0.277	0.442	0.0479	173	129	84
0.303	0.443	0.107	197	146	91
0.303	0.443	0.107	197	146	91
0.284	0.439	0.0604	189	145	96
0.464	0.512	0.426	232	177	113
0.287	0.435	0.0599	173	127	78
0.34	0.436	0.17	186	136	77
0.336	0.429	0.154	200	154	95
0.423	0.456	0.321	234	183	128
0.358	0.432	0.197	205	158	104
0.365	0.428	0.204	188	139	81
0.371	0.421	0.206	183	136	80
0.391	0.425	0.243	213	166	112
0.415	0.428	0.281	221	172	114
0.363	0.406	0.176	202	156	106
0.431	0.422	0.298	195	146	87
0.289	0.393	0.0191	155	116	75
0.398	0.4	0.229	215	166	108
0.398	0.4	0.229	215	166	108
0.478	0.431	0.37	200	153	101
0.342	0.389	0.124	188	148	99
0.493	0.429	0.387	181	130	77
0.364	0.385	0.159	194	150	101
0.467	0.413	0.34	175	123	75
0.468	0.404	0.335	186	140	90
0.501	0.421	0.392	209	158	103
0.463	0.394	0.32	195	149	99
0.463	0.394	0.32	195	149	99
0.436	0.384	0.273	233	185	123
0.343	0.368	0.109	181	141	92
0.446	0.382	0.287	192	147	88
0.457	0.384	0.305	166	118	72
0.378	0.351	0.158	181	140	94
0.505	0.379	0.367	193	146	94
0.447	0.347	0.263	211	168	117
0.451	0.34	0.266	174	132	94
0.514	0.334	0.354	177	134	83
0.534	0.346	0.387	207	160	108
-0.716	0.429	0.564	237	184	142
-0.559	0.491	0.445	208	148	88
-0.616	0.473	0.49	230	177	125
-0.64	0.476	0.523	220	166	120
-0.535	0.518	0.45	253	210	157
-0.496	0.532	0.424	200	143	88
-0.42	0.558	0.38	255	205	154
-0.608	0.497	0.508	237	179	141
-0.478	0.543	0.418	255	204	157
-0.421	0.562	0.385	253	212	158
-0.518	0.534	0.448	252	196	149
-0.457	0.553	0.408	252	187	147
-0.457	0.553	0.408	252	187	147
-0.381	0.58	0.371	246	185	140
-0.395	0.575	0.377	255	197	151
-0.42	0.568	0.389	250	191	147
-0.46	0.557	0.413	246	189	144
-0.434	0.565	0.398	255	198	153
-0.417	0.57	0.389	255	207	158
-0.431	0.568	0.397	255	213	165
-0.371	0.587	0.368	255	203	164
-0.321	0.603	0.353	251	187	149
-0.321	0.603	0.353	251	187	149
-0.404	0.579	0.377	251	205	169
-0.353	0.594	0.355	253	211	173
-0.272	0.62	0.333	255	214	182
-0.256	0.623	0.322	254	207	179
-0.24	0.622	0.292	255	214	182
-0.219	0.627	0.287	250	200	177
-0.164	0.65	0.324	253	216	190
-0.164	0.65	0.324	253	216	190
-0.151	0.655	0.329	255	207	184
-0.147	0.655	0.329	238	190	168
-0.18	0.621	0.195	241	192	162
-0.114	0.664	0.333	250	202	179
-0.151	0.626	0.195	254	191	156
-0.152	0.627	0.203	255	210	168
-0.16	0.629	0.231	255	227	183
-0.0988	0.667	0.334	255	207	184
-0.109	0.634	0.219	253	178	110
-0.0711	0.63	0.177	68	33	14
-0.0697	0.629	0.167	72	38	10
-0.0697	0.629	0.167	72	38	10
-0.0127	0.669	0.328	247	195	171
-0.0528	0.629	0.16	60	33	16
-0.0524	0.629	0.167	60	30	6
-0.0524	0.629	0.167	60	30	6
-0.0412	0.624	0.0982	38	13	9
-0.0412	0.624	0.0982	38	13	9
-0.0384	0.628	0.16	50	23	12
-0.0245	0.623	0.111	96	130	105
-0.0239	0.625	0.135	78	39	22
-0.0219	0.626	0.144	194	172	161
-0.0219	0.626	0.144	194	172	161
0.00192	0.619	0.0222	183	164	166
-0.00785	0.63	0.188	140	100	75
-0.00785	0.63	0.188	140	100	75
0.00424	0.618	0.0296	52	17	11
0.00424	0.618	0.0296	52	17	11
-0.009	0.624	0.14	161	162	130
-0.009	0.624	0.14	161	162	130
-0.00846	0.623	0.134	161	136	116
-0.00076	0.626	0.163	120	124	109
-0.00118	0.625	0.156	53	39	26
0.0394	0.661	0.316	224	170	136
0.0132	0.616	0.0307	176	164	168
0.0132	0.616	0.0307	176	164	168
0.00231	0.622	0.129	66	34	23
0.00601	0.625	0.163	53	36	20
0.00866	0.618	0.0967	72	30	16
0.0208	0.625	0.179	128	101	84
0.0173	0.616	0.0728	67	27	15
0.0385	0.625	0.192	193	149	102
0.0733	0.658	0.318	228	174	140
0.047	0.612	0.118	168	177	148
0.064	0.604	0.0713	61	32	18
0.175	0.679	0.395	218	172	148
0.0784	0.597	0.0133	93	64	48
0.138	0.645	0.322	216	161	120
0.0851	0.594	0.00861	104	73	70
0.0851	0.594	0.00861	104	73	70
0.0852	0.594	0.0132	188	183	190
0.0852	0.594	0.0132	188	183	190
0.0928	0.591	0.00945	112	82	72
0.0928	0.591	0.00945	112	82	72
0.0999	0.588	0.0221	72	32	20
0.141	0.569	0.0491	2	0	1
0.141	0.569	0.0491	2	0	1
0.152	0.559	0.0226	165	145	120
0.16	0.569	0.112	160	140	116
0.158	0.56	0.0555	156	123	92
0.165	0.554	0.0455	157	124	91
0.171	0.563	0.115	166	137	107
0.168	0.546	0.00401	143	126	98
0.169	0.552	0.0544	146	107	74
0.176	0.56	0.113	169	138	109
0.173	0.55	0.0559	172	136	100
0.175	0.55	0.0606	149	109	74
0.181	0.554	0.1	160	126	98
0.196	0.54	0.0803	192	143	100
0.196	0.54	0.0803	192	143	100
0.202	0.537	0.0895	206	156	107
0.293	0.598	0.358	219	160	104
0.194	0.525	0.00779	201	155	106
0.199	0.529	0.0446	176	120	71
0.256	0.561	0.251	227	174	122
0.21	0.528	0.0775	176	124	76
0.211	0.528	0.0813	198	146	98
0.205	0.52	0.0256	194	141	87
0.251	0.542	0.204	206	151	97
0.218	0.52	0.0741	201	145	94
0.219	0.519	0.0707	175	120	66
0.36	0.611	0.431	227	170	117
0.223	0.514	0.0673	178	123	69
0.226	0.512	0.0701	194	137	84
0.24	0.506	0.0905	198	146	89
0.272	0.519	0.189	199	140	82
0.372	0.573	0.398	209	157	99
0.275	0.515	0.186	201	145	88
0.331	0.541	0.31	229	181	132
0.247	0.497	0.0831	188	136	79
0.247	0.497	0.0831	188	136	79
0.235	0.488	0.0245	176	125	72
0.235	0.488	0.0245	176	125	72
0.241	0.487	0.0424	195	142	90
0.238	0.485	0.026	201	150	95
0.239	0.485	0.0302	181	127	80
0.266	0.476	0.0824	198	143	87
0.272	0.478	0.101	203	148	91
0.295	0.476	0.145	203	147	86
0.275	0.466	0.084	205	154	97
0.376	0.5	0.309	230	180	131
0.416	0.52	0.381	220	169	114
0.391	0.501	0.331	215	166	110
0.257	0.454	0.013	168	124	79
0.277	0.454	0.0674	194	148	98
0.349	0.473	0.234	195	146	90
0.373	0.479	0.279	197	145	87
0.3	0.454	0.119	198	142	83
0.323	0.458	0.169	194	148	96
0.361	0.465	0.243	210	155	99
0.277	0.442	0.048	173	129	84
0.453	0.51	0.413	231	176	119
0.396	0.475	0.307	229	177	119
0.333	0.451	0.178	223	172	109
0.281	0.438	0.0495	188	144	97
0.364	0.456	0.236	198	152	93
0.456	0.503	0.409	214	163	100
0.297	0.436	0.0851	183	140	89
0.402	0.462	0.299	210	160	99
0.482	0.511	0.444	228	176	118
0.361	0.439	0.211	190	140	81
0.374	0.442	0.236	180	131	88
0.367	0.437	0.218	187	137	78
0.337	0.43	0.158	195	146	90
0.415	0.443	0.296	200	152	88
0.473	0.459	0.388	175	124	71
0.473	0.459	0.388	175	124	71
0.419	0.43	0.289	189	141	77
0.373	0.411	0.2	177	127	74
0.345	0.404	0.142	208	158	105
0.303	0.4	0.0557	167	125	83
0.385	0.407	0.216	205	158	102
0.419	0.415	0.275	195	145	84
0.287	0.394	0.0162	171	136	94
0.346	0.394	0.135	201	154	98
0.297	0.391	0.0347	164	122	80
0.291	0.391	0.0223	174	137	93
0.423	0.403	0.27	212	166	106
0.449	0.411	0.315	195	148	92
0.473	0.422	0.356	200	150	97
0.471	0.419	0.351	174	127	73
0.325	0.381	0.0849	169	127	85
0.378	0.383	0.181	167	121	71
0.347	0.379	0.124	191	146	89
0.441	0.396	0.29	214	164	103
0.519	0.432	0.422	191	140	83
0.357	0.374	0.138	199	154	99
0.457	0.384	0.305	149	100	57
0.368	0.365	0.151	174	132	82
0.316	0.363	0.0556	166	131	91
0.431	0.365	0.252	186	137	78
0.431	0.34	0.236	184	139	84
0.417	0.336	0.212	196	156	105
0.485	0.339	0.314	183	137	88
0.494	0.338	0.328	201	153	104
0.499	0.333	0.332	189	143	91
0.516	0.331	0.355	198	152	102
-0.661	0.446	0.515	219	166	116
-0.682	0.445	0.54	139	87	40
-0.552	0.503	0.45	247	182	124
-0.54	0.512	0.448	250	188	131
-0.408	0.559	0.371	238	175	121
-0.6	0.497	0.499	233	182	139
-0.524	0.522	0.442	245	180	126
-0.721	0.462	0.607	236	189	163
-0.481	0.54	0.418	250	194	143
-0.481	0.54	0.418	250	194	143
-0.392	0.574	0.374	254	208	159
-0.564	0.528	0.492	198	148	115
-0.346	0.593	0.359	242	181	137
-0.451	0.561	0.408	248	191	148
-0.365	0.59	0.365	254	205	165
-0.436	0.569	0.398	254	209	170
-0.363	0.591	0.36	253	205	165
-0.359	0.592	0.346	252	212	177
-0.269	0.617	0.31	251	197	169
-0.15	0.651	0.318	236	189	169
-0.159	0.627	0.214	242	180	143
-0.111	0.662	0.329	255	207	185
-0.0628	0.677	0.345	241	191	168
-0.0455	0.678	0.345	255	211	186
-0.0658	0.625	0.0811	48	16	3
-0.0741	0.625	0.112	192	171	168
-0.0755	0.644	0.258	245	179	119
-0.0585	0.625	0.0794	60	27	12
-0.069	0.629	0.161	75	40	21
-0.0315	0.624	0.0328	63	27	11
-0.0586	0.628	0.147	178	169	128
-0.0534	0.636	0.216	188	116	44
-0.0331	0.623	0.0655	106	107	89
-0.0182	0.622	0.0386	47	18	4
-0.0303	0.642	0.245	241	177	116
-0.0256	0.623	0.092	69	31	22
-0.00102	0.619	0.0275	41	6	0
0.0121	0.616	0.0452	71	31	21
0.0137	0.616	0.0697	70	34	22
0.0175	0.618	0.11	51	24	13
0.0213	0.617	0.111	56	29	18
0.0225	0.616	0.092	194	183	187
0.0274	0.616	0.11	70	37	28
0.0343	0.619	0.155	53	26	17
0.0343	0.619	0.155	53	26	17
0.0343	0.613	0.0892	73	44	30
0.0482	0.608	0.0587	68	32	20
0.0527	0.606	0.0536	186	177	180
0.0636	0.606	0.102	59	31	20
0.066	0.605	0.0966	166	180	145
0.0811	0.613	0.182	178	143	105
0.0799	0.604	0.124	166	191	198
0.0742	0.6	0.055	156	134	120
0.121	0.594	0.147	145	120	98
0.124	0.593	0.15	147	119	95
0.13	0.587	0.134	150	129	108
0.144	0.57	0.0752	166	145	118
0.15	0.565	0.062	165	141	113
0.15	0.565	0.062	165	141	113
0.154	0.563	0.0588	155	131	103
0.154	0.563	0.0588	155	131	103
0.155	0.565	0.0749	138	111	82
0.168	0.584	0.187	211	162	119
0.184	0.589	0.225	218	158	104
0.166	0.559	0.0813	125	94	66
0.266	0.534	0.21	207	160	116
0.237	0.513	0.104	210	158	101
0.279	0.536	0.233	239	179	127
0.314	0.555	0.313	182	134	88
0.219	0.501	0.00741	183	130	76
0.37	0.572	0.394	217	161	104
0.264	0.506	0.145	204	148	89
0.239	0.493	0.0524	192	139	87
0.243	0.478	0.0236	198	147	94
0.318	0.499	0.227	225	174	121
0.313	0.488	0.2	206	157	101
0.335	0.495	0.247	219	168	111
0.435	0.557	0.44	211	152	82
0.276	0.469	0.0937	211	155	96
0.269	0.465	0.0665	189	139	86
0.281	0.468	0.102	204	149	92
0.268	0.464	0.0621	195	148	96
0.292	0.464	0.119	191	135	76
0.265	0.456	0.0412	164	120	75
0.271	0.457	0.0592	200	154	102
0.32	0.464	0.175	199	152	100
0.329	0.464	0.189	207	157	98
0.445	0.521	0.415	214	160	98
0.409	0.495	0.345	208	158	99
0.326	0.451	0.166	202	151	94
0.463	0.519	0.431	229	173	114
0.463	0.519	0.431	229	173	114
0.355	0.459	0.226	194	144	83
0.36	0.443	0.214	198	149	91
0.276	0.427	0.0234	176	129	83
0.274	0.426	0.0154	169	122	76
0.273	0.423	0.00975	171	127	82
0.271	0.421	0.00267	176	131	89
0.271	0.421	0.00267	176	131	89
0.396	0.442	0.268	220	171	113
0.425	0.452	0.319	220	169	112
0.475	0.462	0.392	209	157	107
0.332	0.408	0.122	187	143	94
0.443	0.426	0.32	196	149	93
0.329	0.386	0.0953	173	130	79
0.416	0.395	0.253	200	154	94
0.384	0.38	0.188	158	107	62
0.383	0.375	0.184	152	104	66
0.383	0.375	0.184	152	104	66
0.41	0.378	0.23	201	154	100
0.392	0.375	0.198	196	155	103
0.477	0.399	0.343	192	142	89
0.35	0.365	0.119	185	144	92
0.447	0.372	0.281	198	155	100
0.364	0.347	0.132	190	154	106
0.45	0.336	0.262	174	132	94
0.537	0.367	0.403	173	122	67
0.537	0.367	0.403	173	122	67
0.539	0.367	0.406	204	154	103
0.523	0.343	0.37	183	134	78
0.523	0.343	0.37	183	134	78
0.497	0.33	0.328	187	140	88
-0.636	0.465	0.506	237	183	136
-0.514	0.526	0.435	230	174	127
-0.533	0.522	0.452	222	164	114
-0.409	0.565	0.379	255	209	159
-0.514	0.534	0.444	254	210	163
-0.357	0.587	0.361	235	173	126
-0.455	0.555	0.408	255	199	152
-0.455	0.555	0.408	255	199	152
-0.36	0.588	0.364	255	198	153
-0.337	0.597	0.357	255	203	163
-0.266	0.61	0.268	247	196	167
-0.234	0.611	0.213	219	172	142
-0.147	0.621	0.129	203	158	129
-0.114	0.662	0.33	255	207	185
-0.0803	0.625	0.113	194	173	172
-0.0758	0.625	0.107	62	26	12
-0.0758	0.625	0.107	62	26	12
-0.0587	0.629	0.159	175	172	131
-0.0485	0.626	0.129	53	25	22
-0.0186	0.631	0.189	148	112	86
-0.00184	0.619	0.0544	186	171	176
0.00115	0.619	0.0827	52	22	11
0.00768	0.617	0.0508	185	176	179
0.00768	0.617	0.0508	185	176	179
0.00348	0.625	0.161	55	32	18
0.00348	0.625	0.161	55	32	18
0.0188	0.615	0.0277	187	174	181
0.0188	0.615	0.0277	187	174	181
0.0104	0.617	0.0741	188	176	180
0.0104	0.617	0.0741	188	176	180
0.0186	0.616	0.0769	189	177	181
0.0665	0.659	0.318	186	133	102
0.0281	0.616	0.117	54	36	22
0.0281	0.616	0.117	54	36	22
0.0419	0.611	0.0806	43	29	16
0.0419	0.611	0.0806	43	29	16
0.0567	0.622	0.197	208	160	112
0.0515	0.614	0.139	178	192	201
0.12	0.652	0.325	234	178	141
0.0754	0.598	0.0242	88	59	51
0.0819	0.595	0.0101	187	187	197
0.154	0.64	0.321	212	155	112
0.153	0.637	0.313	235	176	132
0.153	0.637	0.313	235	176	132
0.197	0.656	0.375	236	184	147
0.164	0.63	0.308	233	171	122
0.188	0.628	0.32	222	164	116
0.141	0.585	0.146	156	130	105
0.143	0.577	0.113	144	126	106
0.184	0.56	0.132	166	130	96
0.204	0.559	0.169	215	165	116
0.195	0.53	0.0354	189	137	87
0.227	0.547	0.176	210	155	101
0.269	0.56	0.268	213	162	117
0.214	0.515	0.04	209	153	96
0.319	0.554	0.317	216	166	117
0.331	0.553	0.328	226	175	128
0.242	0.502	0.0842	188	132	71
0.326	0.546	0.314	232	182	133
0.312	0.526	0.262	211	161	112
0.265	0.503	0.141	203	147	88
0.287	0.512	0.2	212	162	109
0.241	0.49	0.0472	191	138	86
0.311	0.521	0.252	197	147	96
0.294	0.491	0.173	222	171	118
0.294	0.491	0.173	222	171	118
0.352	0.512	0.294	226	177	121
0.317	0.494	0.218	221	170	117
0.317	0.494	0.218	221	170	117
0.344	0.487	0.248	213	161	104
0.369	0.495	0.295	222	171	118
0.372	0.489	0.291	219	172	120
0.27	0.455	0.0522	192	146	96
0.258	0.451	0.0107	168	125	83
0.353	0.475	0.244	198	146	86
0.274	0.452	0.0558	192	146	96
0.396	0.489	0.322	216	166	113
0.294	0.448	0.0965	199	148	93
0.322	0.419	0.116	172	124	75
0.377	0.421	0.216	203	154	98
0.344	0.41	0.147	198	151	95
0.457	0.432	0.342	212	163	107
0.423	0.417	0.283	214	165	109
0.306	0.391	0.0549	160	118	76
0.502	0.448	0.414	186	134	77
0.312	0.39	0.0647	162	120	78
0.299	0.374	0.0267	160	125	87
0.416	0.349	0.219	204	162	112
0.442	0.335	0.25	198	158	109
0.506	0.323	0.337	206	159	107
-0.795	0.397	0.63	240	186	142
-0.679	0.45	0.541	234	180	133
-0.625	0.478	0.507	253	195	147
-0.52	0.532	0.448	212	158	114
-0.41	0.569	0.383	253	205	156
-0.305	0.608	0.328	218	164	136
-0.305	0.608	0.328	218	164	136
-0.318	0.599	0.304	219	172	144
-0.111	0.623	0.0617	210	169	137
-0.0203	0.632	0.195	148	104	75
-0.00613	0.62	0.0325	186	171	174
-0.0103	0.62	0.0466	190	175	178
0.0549	0.673	0.344	242	195	175
0.00963	0.617	0.0407	192	177	184
0.0104	0.623	0.154	55	17	4
0.00888	0.619	0.108	47	18	10
0.00888	0.619	0.108	47	18	10
0.0186	0.616	0.0769	191	179	183
0.0775	0.667	0.338	249	196	165
0.0297	0.614	0.0922	198	187	193
0.0446	0.61	0.0849	194	187	194
0.0446	0.61	0.0849	194	187	194
0.0657	0.603	0.061	189	169	162
0.133	0.585	0.129	138	120	100
0.228	0.585	0.27	222	165	112
0.242	0.514	0.118	213	158	102
0.317	0.542	0.296	213	160	108
0.278	0.52	0.2	188	145	102
0.233	0.487	0.017	198	148	95
0.289	0.505	0.19	184	140	95
0.252	0.488	0.0732	203	150	96
0.247	0.485	0.0529	182	129	77
0.349	0.531	0.318	230	179	126
0.357	0.525	0.32	215	165	112
0.296	0.493	0.181	182	138	93
0.415	0.516	0.377	207	158	102
0.39	0.494	0.321	222	172	121
0.386	0.473	0.29	225	174	111
0.379	0.47	0.277	214	164	111
0.448	0.492	0.389	220	168	111
0.3	0.435	0.0908	194	148	96
0.439	0.469	0.356	203	156	102
0.38	0.442	0.244	200	149	92
0.354	0.425	0.182	187	144	91
0.361	0.426	0.195	203	156	102
0.361	0.426	0.195	203	156	102
0.323	0.413	0.11	180	137	86
0.292	0.407	0.0382	174	130	91
0.433	0.432	0.311	197	148	89
0.467	0.431	0.355	184	133	86
0.365	0.397	0.171	194	152	102
0.408	0.372	0.222	204	159	104
0.343	0.363	0.105	174	136	87
0.511	0.396	0.386	199	149	96
0.504	0.365	0.357	201	153	104
0.442	0.335	0.25	197	157	108
-2.98	-0.152	2.69	35	46	64
-0.586	0.485	0.469	193	137	86
-0.0738	0.625	0.0984	194	172	174
-0.0738	0.625	0.0984	194	172	174
-0.00759	0.631	0.193	145	107	84
-0.00324	0.619	0.073	194	179	184
0.00406	0.618	0.0432	187	175	179
0.055	0.607	0.0853	197	191	201
0.055	0.607	0.0853	197	191	201
0.0735	0.599	0.0122	201	198	207
0.144	0.595	0.192	204	152	102
0.189	0.57	0.177	189	141	93
0.302	0.563	0.312	217	162	106
0.274	0.529	0.212	219	167	117
0.349	0.517	0.298	223	171	114
0.408	0.522	0.375	213	163	104
0.417	0.502	0.363	203	151	91
0.416	0.489	0.348	223	172	117
0.466	0.507	0.423	216	161	96
0.335	0.434	0.16	198	151	97
0.306	0.415	0.079	185	144	98
0.311	0.405	0.0777	164	121	78
0.311	0.405	0.0777	164	121	78
0.285	0.4	0.016	177	140	96
0.308	0.373	0.0441	158	120	83
0.546	0.358	0.41	169	120	77
-0.675	0.451	0.538	231	177	131
-0.517	0.515	0.426	251	199	142
-0.432	0.563	0.396	255	209	158
-0.329	0.598	0.317	237	184	153
-0.0221	0.624	0.119	196	179	185
-0.0221	0.624	0.119	196	179	185
0.0823	0.672	0.348	246	195	166
0.0977	0.59	0.045	200	197	208
0.376	0.501	0.311	223	173	122
0.355	0.478	0.252	204	151	97
0.395	0.468	0.296	225	173	116
0.349	0.447	0.201	182	139	86
0.329	0.404	0.114	199	157	109
0.433	0.423	0.302	202	153	94
0.439	0.392	0.284	210	160	101
0.493	0.373	0.346	202	155	101
-0.666	0.441	0.515	227	171	120
-0.621	0.492	0.519	233	178	139
-0.4	0.573	0.379	219	161	115
0.00776	0.62	0.121	199	188	194
0.115	0.641	0.299	208	146	95
0.162	0.581	0.169	184	150	115
0.187	0.568	0.166	185	144	100
0.214	0.579	0.238	219	158	103
0.334	0.484	0.228	194	144	91
0.415	0.373	0.233	198	152	93
0.472	0.367	0.313	195	145	92
0.483	0.346	0.316	200	154	105
-0.451	0.561	0.409	243	189	143
0.199	0.52	0.00101	197	149	100
0.278	0.413	0.0127	159	115	76
-0.0853	0.625	0.102	196	175	174
0.36	0.448	0.221	212	160	100
0.35	0.4	0.148	205	156	100
0.459	0.367	0.295	168	119	76
-0.0541	0.64	0.236	221	153	82
0.42	0.512	0.377	211	160	103
0.252	0.564	0.252	230	177	127
