ply
format ascii 1.0
comment written by Chenxi
element vertex 109
property float32 x
property float32 y
property float32 z
property uchar red
property uchar green
property uchar blue
end_header
-0.011	-0.00596	0.466	222	157	211
-0.0168	-0.0171	0.542	221	153	210
-0.0179	-0.02	0.56	221	165	212
-0.0134	-0.00994	0.49	186	86	158
-0.0134	-0.00994	0.49	186	86	158
-0.0161	-0.0158	0.526	213	166	208
-0.0142	-0.0114	0.496	176	85	152
-0.0105	-0.00524	0.447	177	89	149
-0.00845	-0.00252	0.422	185	86	150
-0.0138	-0.00865	0.432	167	82	147
-0.0149	-0.0119	0.456	174	66	142
-0.014	-0.00641	0.402	178	76	150
-0.0147	-0.00675	0.395	166	68	143
-0.0147	-0.00675	0.395	166	68	143
0.0295	-0.0118	0.182	215	163	212
0.0327	-0.0141	0.188	210	164	213
-0.0158	-0.00266	0.344	210	173	216
0.0398	-0.0215	0.189	199	83	168
0.0164	-0.00888	0.0965	218	175	221
-0.0115	-0.00667	0.464	205	165	202
-0.015	-0.0132	0.503	209	162	206
-0.015	-0.0132	0.503	209	162	206
-0.0119	-0.00699	0.458	204	162	198
-0.014	-0.0109	0.482	175	79	150
-0.0151	-0.0105	0.434	178	69	150
-0.0151	-0.0105	0.434	178	69	150
-0.0135	-0.00387	0.373	178	124	174
-0.0104	0.00175	0.319	162	108	157
-0.0104	0.00175	0.319	162	108	157
0.0035	0.00533	0.152	175	88	156
-0.0133	0.00685	0.243	163	83	146
0.0127	-0.0014	0.142	205	168	211
0.0358	-0.0195	0.176	186	84	160
-0.0105	0.01	0.19	205	170	210
-0.014	0.0114	0.181	170	88	152
-0.0116	0.0125	0.148	197	163	200
0.00828	2.34e-05	0.104	173	80	150
0.00663	0.000696	0.0906	212	163	208
-0.0344	-0.0768	0.883	188	187	205
-0.0169	-0.018	0.542	187	83	158
-0.0169	-0.018	0.542	187	83	158
-0.0131	-0.00923	0.476	212	167	208
0.0388	-0.0163	0.212	190	74	159
0.17	-0.786	2.46	188	191	208
0.0279	-0.0111	0.178	214	166	214
0.0279	-0.0111	0.178	214	166	214
0.0297	-0.0121	0.181	208	169	213
0.0313	-0.0134	0.184	204	169	209
0.0123	8.52e-05	0.162	210	169	211
0.0193	-0.00486	0.165	203	171	210
0.0213	-0.00626	0.168	207	172	214
0.00844	0.00266	0.162	195	160	200
0.00844	0.00266	0.162	195	160	200
-0.005	0.00846	0.195	201	163	204
-0.00689	0.00851	0.207	199	165	202
0.0154	-0.00297	0.15	188	87	163
0.0177	-0.00694	0.13	202	171	213
-0.0153	0.0115	0.182	195	167	207
0.0317	-0.0258	0.116	204	201	222
0.027	-0.0234	0.0722	204	201	222
-0.0408	-0.0502	0.794	178	110	159
-0.0323	-0.0746	0.873	188	187	205
-0.0181	-0.0223	0.561	195	157	198
-0.0181	-0.0223	0.561	195	157	198
-0.0102	-0.000829	0.358	201	170	202
-0.0131	-0.00473	0.388	183	75	151
0.0362	-0.017	0.193	199	167	204
0.00845	0.00266	0.162	195	160	200
0.00845	0.00266	0.162	195	160	200
0.0106	0.00126	0.161	203	166	209
-0.0122	0.00591	0.257	190	162	200
-0.00869	0.0082	0.219	194	168	205
-0.000904	0.00751	0.175	200	168	205
0.00283	0.00583	0.166	200	170	208
-0.0138	0.00423	0.275	195	169	206
-0.0156	0.00837	0.223	192	83	164
0.0212	-0.00948	0.137	203	171	210
0.00943	-6.93e-05	0.121	201	168	211
0.00943	-6.93e-05	0.121	201	168	211
-0.00681	0.0109	0.129	199	171	209
-0.00436	0.00971	0.123	196	169	204
0.0276	-0.0175	0.128	208	182	221
0.00219	0.00431	0.0811	203	166	209
0.028	-0.0193	0.121	186	73	153
-0.0211	-0.0251	0.611	194	76	160
-0.0147	-0.0119	0.516	194	83	162
0.0331	0.0125	0.686	195	198	215
-0.0148	-0.0119	0.464	190	74	155
-0.0155	-0.0137	0.467	169	98	158
-0.0156	-0.00027	0.32	199	169	207
0.0114	-0.000214	0.143	189	75	160
0.0466	-0.0258	0.202	195	196	214
0.0209	-0.0133	0.103	188	75	157
0.000387	0.00502	0.0625	191	72	154
0.00584	7.62e-05	0.0705	192	73	157
-0.014	-0.000876	0.332	191	79	161
0.0159	-0.00559	0.124	185	80	162
0.00901	-0.00259	0.0783	187	70	151
-0.0214	-0.0236	0.615	169	53	128
0.0138	-0.00163	0.151	203	164	208
0.00393	0.00508	0.152	167	115	164
0.0097	0.00129	0.147	196	168	208
0.0292	-0.0139	0.166	198	170	210
-0.0133	0.00762	0.232	145	74	134
0.0259	-0.0155	0.128	192	74	158
0.0567	-0.0362	0.209	193	196	213
-0.0211	-0.0328	0.631	187	74	156
0.0394	-0.0255	0.165	194	75	159
-0.0204	0.00979	0.21	191	75	158
