ply
format ascii 1.0
comment written by Chenxi
element vertex 985
property float32 x
property float32 y
property float32 z
property uchar red
property uchar green
property uchar blue
end_header
-1.04	0.666	4.9	167	139	118
-0.954	0.546	4.92	141	123	109
-0.905	0.929	4.64	177	138	107
-0.834	0.819	4.68	122	87	65
-0.987	1.23	4.43	193	147	111
-0.733	0.618	4.75	130	113	97
-0.79	0.814	4.64	163	133	109
-0.783	0.82	4.65	165	135	111
-0.7	0.742	4.64	139	120	103
-0.7	0.742	4.64	139	120	103
-0.836	1.1	4.46	192	148	111
-0.784	1.07	4.43	190	151	112
-0.59	0.874	4.49	166	135	107
-0.614	1.23	4.18	213	168	129
-0.365	0.348	3.75	134	121	115
-0.61	1.32	4.09	220	177	135
-0.302	0.117	3.45	4	3	1
-0.302	0.117	3.45	4	3	1
-0.304	0.636	3.96	55	82	65
-0.327	0.959	4.27	138	111	90
-0.367	1.08	4.19	215	170	131
-0.474	1.31	4.01	226	177	136
-0.497	1.36	3.97	219	168	125
-0.233	0.137	3.41	6	2	0
-0.477	1.37	3.95	217	168	128
-0.301	1.03	4.2	221	168	118
-0.207	-0.00613	3.24	3	2	0
-0.374	1.26	4.01	232	181	134
-0.164	0.158	3.37	17	9	7
-0.164	0.158	3.37	17	9	7
-0.146	0.329	3.53	130	119	123
-0.153	0.501	3.69	150	123	112
-0.125	0.169	3.36	10	1	2
-0.125	0.169	3.36	10	1	2
-0.374	1.41	3.84	233	183	146
-0.126	0.325	3.51	123	117	121
-0.118	0.332	3.51	123	110	93
-0.388	1.46	3.77	216	164	124
-0.374	1.46	3.77	222	175	133
-0.0972	0.318	3.49	26	13	7
-0.0917	0.106	3.28	120	109	103
-0.307	1.38	3.83	228	174	128
-0.0719	0.322	3.48	17	3	2
-0.0674	0.138	3.3	63	87	74
-0.0683	0.178	3.34	119	114	110
-0.0661	0.171	3.34	16	0	0
-0.0661	0.171	3.34	16	0	0
-0.0622	0.133	3.3	11	7	6
-0.0607	0.174	3.34	144	131	125
-0.0607	0.174	3.34	144	131	125
-0.0509	1.03	4.09	227	170	115
-0.283	1.44	3.75	235	184	139
-0.0304	0.122	3.27	54	70	59
-0.0266	0.302	3.44	137	126	130
-0.0174	0.38	3.51	22	8	5
-0.0142	0.239	3.38	146	132	132
-0.276	1.46	3.71	247	193	146
-0.0026	1.01	4.08	143	104	75
0.00413	0.555	3.66	21	5	6
0.0153	0.243	3.37	139	120	116
-0.0764	1.2	3.92	221	167	120
0.0484	0.579	3.67	147	129	129
0.0484	0.579	3.67	147	129	129
0.0436	0.0274	3.16	63	68	62
0.0442	0.0369	3.17	130	117	108
0.0533	0.0188	3.15	15	1	1
0.0624	0.385	3.49	14	0	0
0.0917	0.495	3.58	141	120	115
0.0796	0.0585	3.19	29	9	8
0.103	0.583	3.66	119	107	81
-0.175	1.48	3.62	248	194	148
0.0918	-0.0175	3.11	100	99	94
0.112	0.546	3.63	17	6	0
0.113	0.417	3.51	29	14	9
-0.165	1.49	3.6	114	60	16
0.135	0.219	3.33	125	105	104
0.139	0.231	3.34	146	131	134
0.14	0.06	3.18	141	126	131
0.173	0.623	3.69	135	126	97
-0.148	1.53	3.53	228	176	128
0.18	0.568	3.64	128	128	92
0.157	-0.00341	3.12	70	83	74
0.157	-0.00341	3.12	70	83	74
0.157	-0.0519	3.08	6	8	5
0.157	-0.0519	3.08	6	8	5
0.185	0.219	3.33	148	130	128
0.207	0.429	3.51	25	5	7
0.207	0.429	3.51	25	5	7
0.208	0.327	3.42	161	145	148
0.212	0.196	3.31	17	0	0
-0.0441	1.48	3.54	247	194	152
0.247	0.203	3.32	33	12	17
-0.0428	1.49	3.53	246	192	145
-0.0383	1.49	3.53	155	101	55
-0.0383	1.49	3.53	155	101	55
-0.0373	1.49	3.52	243	189	142
-0.0122	1.47	3.54	252	199	155
-0.028	1.5	3.51	250	196	152
0.303	0.189	3.32	178	157	154
0.0452	1.47	3.51	234	180	136
0.344	0.18	3.32	182	154	150
0.0279	1.52	3.44	243	190	150
0.0815	1.45	3.52	253	201	154
0.0556	1.5	3.46	255	202	158
0.0951	1.45	3.51	246	192	148
0.0951	1.45	3.51	246	192	148
0.0888	1.51	3.43	237	187	150
0.0666	1.54	3.39	122	73	33
0.0666	1.54	3.39	122	73	33
0.435	1.09	3.84	211	158	116
0.208	1.46	3.45	226	174	127
0.211	1.49	3.4	185	133	83
0.218	1.5	3.39	244	190	144
0.218	1.5	3.39	244	190	144
0.298	1.45	3.43	247	189	141
0.612	1.18	3.68	235	184	141
0.383	1.47	3.36	158	104	60
0.455	1.44	3.38	223	170	126
0.401	1.51	3.28	240	182	142
0.523	1.47	3.32	241	188	144
0.419	1.62	3.11	216	168	128
0.541	1.51	3.24	236	187	146
0.738	1.34	3.45	121	69	30
0.748	1.46	3.27	215	166	125
0.601	1.58	3.1	133	83	48
0.733	1.47	3.25	222	178	141
0.727	1.52	3.18	229	178	135
0.657	1.59	3.07	223	178	137
0.707	1.61	3.01	224	176	136
1.03	1.5	3.13	146	101	68
1.25	1.39	3.27	188	144	109
1.54	1.28	3.42	227	179	143
1.14	1.55	3.03	156	113	79
1.27	1.51	3.08	204	165	134
1.35	1.48	3.12	208	165	133
1.32	1.51	3.08	217	173	144
1.32	1.51	3.08	217	173	144
1.62	1.34	3.33	214	170	133
1.36	1.54	3.03	210	170	135
1.38	1.59	2.92	142	103	74
1.63	1.5	3.07	188	144	109
1.63	1.5	3.07	188	144	109
1.58	1.54	3.01	237	189	153
-2.17	-0.0622	5.73	167	123	98
-1.76	0.405	5.44	168	121	91
-0.557	-2.08	6.73	97	179	229
-1.37	0.83	5.01	118	80	57
-1.23	0.472	5.12	175	135	109
-1.34	0.839	4.98	121	79	57
-1.31	0.753	5.01	164	123	93
-1.35	0.969	4.91	191	147	112
-1.21	0.923	4.84	188	148	122
-1.05	0.592	4.94	174	148	133
-1.11	0.862	4.81	183	146	117
-0.992	0.584	4.92	146	124	111
-1.12	0.953	4.76	177	137	111
-1.12	0.97	4.74	185	146	117
-1.13	1.14	4.61	174	134	99
-0.892	0.511	4.9	137	125	113
-0.936	0.753	4.78	171	139	116
-1.06	1.1	4.61	186	142	105
-0.885	0.718	4.77	159	130	112
-0.893	0.815	4.71	159	125	98
-0.994	1.1	4.56	208	160	122
-0.732	0.464	4.84	132	125	115
-0.762	0.624	4.76	137	124	107
-0.808	0.757	4.73	131	108	90
-0.878	0.977	4.58	141	97	68
-0.815	0.866	4.62	172	137	109
-0.846	0.951	4.58	143	96	66
-0.758	0.753	4.68	147	126	107
-0.823	0.917	4.59	182	138	103
-0.733	0.712	4.69	144	127	111
-0.733	0.712	4.69	144	127	111
-0.881	1.28	4.31	186	136	101
-0.759	1.04	4.45	177	135	97
-0.803	1.16	4.38	206	158	120
-0.783	1.14	4.38	197	152	111
-0.783	1.14	4.38	197	152	111
-0.785	1.19	4.35	204	157	115
-0.483	-0.0117	3.56	40	28	16
-0.488	0.214	3.8	126	107	90
-0.488	0.214	3.8	126	107	90
-0.466	0.178	3.73	141	132	135
-0.731	1.27	4.23	135	81	43
-0.731	1.27	4.23	135	81	43
-0.511	0.609	4.22	53	84	69
-0.481	0.633	4.19	96	118	106
-0.481	0.633	4.19	96	118	106
-0.381	-0.123	3.28	102	104	101
-0.468	0.644	4.17	95	118	108
-0.465	0.63	4.16	102	122	110
-0.449	0.535	4.05	56	84	70
-0.45	0.545	4.06	109	126	116
-0.665	1.26	4.18	201	154	112
-0.356	-0.0262	3.35	115	107	105
-0.423	0.669	4.13	59	85	72
-0.471	0.988	4.32	185	142	107
-0.604	1.29	4.12	200	149	106
-0.364	0.348	3.75	134	121	113
-0.356	0.36	3.75	130	112	108
-0.508	1.12	4.22	210	161	120
-0.517	1.19	4.17	210	163	121
-0.324	0.253	3.61	35	25	23
-0.527	1.22	4.14	209	162	120
-0.351	0.717	4.08	61	89	77
-0.296	0.272	3.59	106	97	92
-0.31	0.437	3.77	141	121	112
-0.319	0.722	4.05	63	90	73
-0.584	1.45	3.91	212	167	128
-0.296	0.583	3.9	111	125	112
-0.244	0.013	3.28	116	106	105
-0.403	1.14	4.15	206	155	110
-0.317	0.989	4.24	162	111	64
-0.274	0.617	3.91	60	87	70
-0.218	0.0466	3.3	118	109	110
-0.222	0.142	3.4	15	10	7
-0.465	1.36	3.95	234	185	142
-0.21	0.207	3.45	22	10	10
-0.237	0.661	3.91	115	132	114
-0.19	-0.00367	3.23	106	97	98
-0.213	0.488	3.73	142	115	104
-0.196	0.493	3.71	143	119	107
-0.419	1.39	3.88	216	166	129
-0.16	0.0278	3.24	8	0	0
-0.16	0.0278	3.24	8	0	0
-0.165	0.145	3.36	26	14	16
-0.155	0.337	3.54	12	0	0
-0.153	0.319	3.52	25	10	7
-0.146	0.437	3.63	145	124	123
-0.125	0.0468	3.24	114	104	102
-0.124	0.331	3.52	24	6	4
-0.124	0.674	3.84	32	25	15
-0.122	0.763	3.91	14	4	0
-0.0935	-0.0504	3.13	8	3	9
-0.0959	0.0881	3.27	125	122	129
-0.11	0.745	3.89	30	10	3
-0.0815	-0.0301	3.15	37	64	57
-0.0815	-0.0301	3.15	37	64	57
-0.0872	0.49	3.65	141	122	108
-0.0784	0.13	3.3	18	13	9
-0.0644	-0.0295	3.14	6	6	6
-0.299	1.4	3.8	249	195	149
-0.302	1.42	3.77	246	192	146
-0.0504	0.127	3.29	59	72	65
-0.048	0.0992	3.26	45	63	51
-0.0454	0.131	3.29	9	5	4
-0.0445	0.291	3.44	18	4	4
-0.035	0.293	3.44	131	115	116
-0.0326	-0.0219	3.14	6	5	3
-0.0326	-0.0219	3.14	6	5	3
-0.0317	0.127	3.28	11	11	9
-0.0317	0.127	3.28	11	11	9
-0.0314	0.112	3.26	64	74	66
-0.0264	0.454	3.58	28	3	6
-0.278	1.45	3.72	241	187	143
-0.0162	0.257	3.4	32	14	10
-0.267	1.45	3.71	248	194	148
-0.264	1.46	3.7	123	69	25
0.0272	0.996	4.09	80	51	33
0.0149	0.0493	3.19	144	128	131
-0.251	1.47	3.67	179	124	70
0.0252	0.596	3.69	118	106	84
0.0335	0.569	3.67	38	20	8
0.0371	0.576	3.67	132	115	99
0.036	0.437	3.54	136	121	124
0.036	0.437	3.54	136	121	124
0.041	0.647	3.74	37	20	12
0.041	0.647	3.74	37	20	12
0.0201	1.06	4.03	215	155	101
0.0626	0.455	3.55	141	125	128
0.056	-0.135	3.01	9	5	6
0.0791	0.4	3.5	24	6	4
0.0812	0.196	3.31	23	9	9
0.0812	0.196	3.31	23	9	9
0.0917	0.604	3.68	146	130	131
0.0961	0.732	3.8	39	19	21
0.0961	0.732	3.8	39	19	21
0.099	0.811	3.86	144	116	113
0.0907	0.264	3.37	26	5	4
0.092	0.222	3.34	146	133	140
0.092	0.222	3.34	146	133	140
0.0832	-0.0576	3.08	140	135	139
0.109	0.776	3.82	160	139	136
0.1	0.241	3.35	148	132	132
0.114	0.0973	3.22	31	11	10
0.112	-0.0181	3.11	29	17	17
0.133	0.235	3.34	34	15	11
0.124	-0.0169	3.11	14	0	0
-0.134	1.48	3.59	234	181	141
0.139	0.102	3.22	41	20	19
0.139	0.102	3.22	41	20	19
0.148	0.224	3.33	148	124	124
0.148	0.224	3.33	148	124	124
-0.119	1.47	3.6	255	203	153
0.146	0.0717	3.19	145	133	135
-0.118	1.5	3.55	233	181	141
0.179	0.22	3.33	42	16	17
-0.0642	1.46	3.59	254	202	162
-0.0642	1.46	3.59	254	202	162
0.211	0.338	3.43	153	133	135
-0.0646	1.49	3.54	246	188	142
-0.0646	1.49	3.54	246	188	142
0.233	0.191	3.31	34	10	8
0.253	0.189	3.31	159	135	135
-0.0186	1.48	3.53	255	202	163
-0.00502	1.48	3.52	247	198	157
0.00231	1.49	3.51	255	204	163
-0.0228	1.52	3.47	255	206	169
0.00793	1.49	3.5	252	201	156
0.0148	1.49	3.49	247	192	151
0.0138	1.49	3.49	124	72	35
0.0132	1.53	3.43	240	187	145
0.0883	1.45	3.52	229	174	133
0.0547	1.51	3.45	247	191	144
0.0292	1.54	3.42	255	202	163
0.0622	1.5	3.46	242	189	147
0.0814	1.51	3.44	253	198	157
0.0949	1.52	3.41	254	202	155
0.108	1.53	3.39	255	199	161
0.221	1.49	3.39	255	201	156
0.221	1.49	3.39	255	201	156
0.228	1.49	3.39	248	194	147
0.318	1.47	3.38	156	101	45
0.326	1.48	3.37	148	92	41
0.326	1.48	3.37	148	92	41
0.361	1.49	3.34	228	171	126
0.374	1.56	3.23	198	154	119
0.5	1.45	3.34	245	190	149
0.516	1.46	3.33	240	187	143
0.495	1.51	3.25	211	162	119
0.495	1.51	3.25	211	162	119
0.418	1.62	3.1	231	182	141
0.665	1.44	3.31	225	176	133
0.608	1.49	3.25	238	185	143
0.705	1.42	3.33	235	184	141
0.733	1.44	3.3	181	132	91
0.792	1.47	3.23	219	170	129
0.646	1.61	3.04	237	185	146
0.721	1.57	3.08	106	57	25
0.74	1.57	3.08	218	174	139
0.81	1.59	3.02	151	103	65
0.808	1.64	2.95	203	162	134
1.11	1.53	3.06	220	177	142
1.31	1.52	3.07	196	160	128
1.32	1.52	3.07	215	176	143
1.34	1.53	3.05	217	176	146
1.36	1.53	3.04	205	164	134
1.46	1.58	2.93	189	149	123
-1.84	0.327	5.54	172	127	98
-1.81	0.455	5.46	179	136	101
-1.76	0.439	5.44	155	108	78
-1.68	0.527	5.37	184	142	104
-1.46	0.508	5.24	178	134	105
-1.51	0.739	5.15	217	169	131
-1.27	0.342	5.21	182	138	109
-1.18	0.247	5.17	163	135	121
-1.28	0.656	5.04	187	146	114
-1.26	0.795	4.95	152	106	80
-1.29	1.13	4.76	181	138	106
-1.17	0.832	4.88	173	138	110
-1.17	0.832	4.88	173	138	110
-1.2	0.968	4.8	135	95	70
-1.2	0.981	4.8	187	150	123
-1.19	0.998	4.77	158	113	80
-1.14	0.92	4.79	178	141	114
-1.13	0.93	4.8	181	146	118
-1.13	0.93	4.8	181	146	118
-1.13	0.965	4.76	178	139	108
-0.943	0.491	4.93	145	123	109
-1.08	0.895	4.78	178	139	110
-1.07	1.04	4.67	193	156	127
-0.875	0.539	4.88	130	116	105
-0.875	0.539	4.88	130	116	105
-0.854	0.486	4.9	133	125	114
-0.978	0.819	4.76	158	126	101
-1.07	1.08	4.62	110	63	37
-1.07	1.08	4.62	110	63	37
-0.938	0.852	4.71	172	141	113
-0.796	0.591	4.8	119	105	92
-0.969	1.06	4.57	190	150	115
-0.741	0.534	4.82	137	129	116
-0.697	0.513	4.81	131	124	114
-0.954	1.26	4.4	185	137	101
-0.795	0.891	4.59	173	136	107
-0.788	0.924	4.56	154	109	76
-0.698	0.805	4.6	149	127	104
-0.564	0.548	4.3	52	83	67
-0.536	0.486	4.16	99	117	105
-0.471	0.575	4.13	50	84	67
-0.471	0.575	4.13	50	84	67
-0.384	-0.0609	3.35	111	103	101
-0.715	1.37	4.1	140	90	53
-0.378	0.00751	3.42	30	19	15
-0.356	0.36	3.75	136	118	114
-0.373	0.588	3.99	115	130	125
-0.333	0.243	3.6	105	113	90
-0.317	0.107	3.45	23	18	15
-0.317	0.107	3.45	23	18	15
-0.516	1.24	4.13	174	125	92
-0.516	1.24	4.13	174	125	92
-0.31	0.447	3.78	46	27	20
-0.324	0.715	4.05	118	136	124
-0.502	1.29	4.06	212	165	123
-0.289	0.452	3.76	49	29	22
-0.25	0.00773	3.29	7	0	0
-0.308	0.722	4.03	127	132	125
-0.246	-0.0175	3.26	11	6	3
-0.246	-0.0175	3.26	11	6	3
-0.278	0.428	3.72	138	121	111
-0.249	0.148	3.43	31	18	12
-0.282	0.611	3.91	123	133	125
-0.262	0.461	3.75	137	114	106
-0.252	0.412	3.69	134	114	103
-0.252	0.412	3.69	134	114	103
-0.274	0.719	4	139	140	135
-0.254	0.474	3.75	137	115	104
-0.23	0.145	3.4	96	103	72
-0.23	0.145	3.4	96	103	72
-0.241	0.613	3.87	136	139	132
-0.219	0.475	3.72	139	116	102
-0.22	0.484	3.73	138	114	104
-0.179	-0.00327	3.23	14	8	8
-0.449	1.4	3.89	238	181	128
-0.166	0.137	3.36	104	109	79
-0.166	0.137	3.36	104	109	79
-0.171	0.281	3.5	29	15	14
-0.18	0.718	3.91	131	137	123
-0.18	0.718	3.91	131	137	123
-0.165	0.637	3.83	118	126	115
-0.165	0.637	3.83	118	126	115
-0.155	0.433	3.63	33	8	3
-0.147	0.303	3.51	31	17	8
-0.137	0.0758	3.28	30	15	8
-0.143	0.254	3.45	28	12	12
-0.149	0.649	3.83	124	130	120
-0.138	0.463	3.65	52	27	22
-0.138	0.463	3.65	52	27	22
-0.148	0.738	3.91	130	136	124
-0.148	0.738	3.91	130	136	124
-0.138	0.629	3.81	118	132	115
-0.138	0.629	3.81	118	132	115
-0.122	0.346	3.53	38	24	15
-0.416	1.5	3.74	204	155	114
-0.12	0.5	3.67	39	16	10
-0.12	0.5	3.67	39	16	10
-0.118	0.511	3.68	140	116	104
-0.103	0.358	3.53	31	13	9
-0.103	0.358	3.53	31	13	9
-0.112	0.786	3.93	34	13	8
-0.107	0.706	3.85	38	19	15
-0.0839	0.135	3.31	126	117	110
-0.087	0.489	3.64	137	118	103
-0.0826	0.997	4.13	99	71	49
-0.0826	0.997	4.13	99	71	49
-0.0692	0.136	3.3	69	93	79
-0.0554	0.244	3.4	23	18	15
-0.0496	0.0013	3.16	4	3	1
-0.0496	0.0013	3.16	4	3	1
-0.0487	0.14	3.3	52	72	63
-0.05	0.384	3.52	27	12	9
-0.301	1.46	3.72	255	198	160
-0.0281	0.308	3.45	28	15	9
-0.027	0.251	3.39	21	5	5
-0.0286	0.357	3.49	36	15	12
-0.0249	0.279	3.42	3	1	6
-0.0193	0.235	3.38	36	12	10
-0.0193	0.235	3.38	36	12	10
-0.0166	0.357	3.49	130	118	120
-0.0138	0.48	3.6	134	111	103
-0.0103	0.37	3.5	25	12	4
-0.00295	0.0191	3.17	4	3	1
0.00475	0.0226	3.17	10	6	5
-0.261	1.47	3.68	255	205	157
0.0253	0.595	3.69	118	106	84
-0.00214	1.07	4.02	228	168	114
0.0403	0.309	3.42	21	7	7
0.0403	0.309	3.42	21	7	7
0.0687	0.637	3.72	23	5	1
0.0885	0.988	4.07	84	51	34
0.0613	-0.139	3.01	240	180	154
0.0804	0.511	3.6	34	11	5
-0.197	1.5	3.6	236	182	135
0.0982	0.125	3.24	124	106	102
0.104	0.119	3.24	35	20	17
0.108	-0.127	3.01	195	161	149
-0.165	1.53	3.54	241	187	141
0.159	0.218	3.33	147	127	128
0.159	0.218	3.33	147	127	128
0.15	0.0162	3.14	139	120	116
-0.111	1.49	3.56	247	198	158
-0.111	1.49	3.56	247	198	158
0.362	-0.396	3.31	223	166	147
-0.103	1.5	3.55	255	205	165
-0.103	1.5	3.55	255	205	165
0.192	0.217	3.33	39	18	15
-0.074	1.5	3.53	250	192	152
-0.074	1.5	3.53	250	192	152
-0.0644	1.5	3.53	253	198	157
0.238	0.198	3.31	164	143	148
0.315	0.176	3.31	72	48	38
0.0434	1.5	3.46	255	199	154
0.201	1.47	3.44	223	169	125
0.201	1.47	3.44	223	169	125
0.152	1.53	3.37	244	190	144
0.259	1.49	3.37	232	175	130
0.335	1.5	3.36	236	182	136
0.415	1.45	3.39	244	187	142
0.415	1.45	3.39	244	187	142
0.569	1.45	3.33	238	183	144
0.633	1.43	3.34	206	157	116
0.444	1.61	3.1	234	185	144
0.444	1.61	3.1	234	185	144
0.494	1.59	3.12	222	171	128
0.605	1.5	3.24	193	144	101
0.619	1.48	3.26	216	167	124
1.5	0.701	4.18	225	170	131
0.618	1.54	3.17	225	173	133
0.816	1.42	3.31	219	167	127
1.39	0.931	3.89	235	176	132
0.733	1.57	3.08	215	173	133
0.81	1.57	3.07	222	177	136
0.942	1.55	3.06	208	163	122
1.24	1.38	3.29	213	167	131
1.03	1.56	3.03	215	172	138
1.4	1.34	3.32	216	171	132
1.34	1.47	3.14	203	160	126
1.34	1.47	3.14	203	160	126
1.45	1.49	3.11	214	170	133
1.57	1.48	3.11	234	191	159
1.73	1.43	3.17	216	170	134
2.15	1.21	3.52	195	159	135
1.63	1.5	3.07	217	173	138
-2.67	-0.492	5.87	143	114	106
-2.82	-0.116	6.13	161	125	103
-2.28	-0.082	5.8	157	112	89
-2.21	0.0986	5.77	166	122	97
-2.02	-0.144	5.69	157	119	100
-2.06	0.22	5.66	172	128	99
-1.78	0.0815	5.55	175	130	97
-1.88	0.43	5.5	164	119	86
-1.69	0.141	5.48	179	136	104
-1.81	0.544	5.44	206	164	126
-1.76	0.439	5.44	155	108	78
-1.73	0.496	5.4	172	129	94
-1.59	0.211	5.44	173	128	97
-1.58	0.229	5.41	180	135	102
-1.55	0.577	5.25	166	122	87
-1.48	0.547	5.22	188	145	111
-1.48	0.547	5.22	188	145	111
-1.4	0.394	5.22	181	137	108
-1.44	0.892	5.02	189	148	118
-1.44	0.892	5.02	189	148	118
-1.25	0.472	5.13	179	139	113
-1.39	0.91	4.96	185	146	115
-1.22	0.482	5.1	183	143	117
-1.35	0.872	4.98	171	134	107
-1.19	0.664	4.99	184	145	116
-0.882	0.251	5.05	153	139	128
-1.08	0.873	4.79	177	140	113
-0.943	0.506	4.94	151	129	115
-0.942	0.522	4.93	118	100	88
-1.08	0.917	4.76	183	148	120
-0.794	0.3	5	141	131	121
-0.852	0.473	4.9	142	132	122
-0.985	0.831	4.76	176	140	114
-1.05	1.05	4.65	193	153	118
-0.766	0.494	4.87	119	115	106
-0.739	0.492	4.84	133	126	118
-0.992	1.2	4.47	172	124	88
-0.974	1.21	4.46	168	122	86
-0.912	1.13	4.49	199	157	119
-0.878	1.12	4.47	193	153	118
-0.689	0.757	4.63	125	104	85
-0.698	0.805	4.6	148	126	103
-0.75	1.05	4.44	187	143	104
-0.626	0.849	4.54	122	91	70
-0.533	0.838	4.49	102	81	62
-0.527	0.856	4.48	145	121	97
-0.492	0.625	4.2	116	129	122
-0.567	0.995	4.37	195	152	110
-0.553	1.19	4.2	202	157	116
-0.564	1.23	4.17	195	150	111
-0.344	0.248	3.62	38	28	26
-0.353	0.427	3.81	68	49	43
-0.341	0.713	4.07	123	130	123
-0.315	0.483	3.82	136	118	108
-0.315	0.483	3.82	136	118	108
-0.256	-0.0122	3.28	106	102	103
-0.281	0.46	3.76	140	120	109
-0.275	0.416	3.71	98	79	72
-0.275	0.416	3.71	98	79	72
-0.255	0.423	3.7	41	21	14
-0.385	1.21	4.07	197	145	97
-0.23	0.471	3.73	97	72	65
-0.186	0.0454	3.28	18	9	10
-0.191	0.478	3.7	43	19	7
-0.173	0.315	3.53	37	25	13
-0.185	0.624	3.84	131	134	125
-0.156	0.308	3.52	109	114	82
-0.165	0.637	3.83	118	126	115
-0.151	0.491	3.68	89	65	55
-0.417	1.5	3.74	204	155	114
-0.0851	0.134	3.3	125	114	108
-0.0624	0.357	3.5	34	14	15
-0.0496	0.00135	3.16	10	9	7
-0.0496	0.00135	3.16	10	9	7
-0.0506	0.511	3.65	136	112	102
-0.0506	0.511	3.65	136	112	102
-0.0332	0.145	3.29	17	7	6
-0.0112	0.217	3.36	25	5	4
-0.000968	0.282	3.42	124	115	118
0.00127	0.147	3.29	131	126	107
0.0229	-0.122	3.03	39	24	27
0.0309	0.606	3.7	38	21	11
0.0321	0.0431	3.18	19	8	4
0.0741	0.69	3.76	16	3	0
0.0678	0.0715	3.2	129	119	128
0.0929	-0.0113	3.12	26	11	8
0.136	0.358	3.45	24	6	4
0.155	0.00194	3.13	23	12	10
0.163	-0.133	3.01	10	10	8
0.182	-0.00714	3.12	23	13	11
-0.00888	1.45	3.57	253	189	141
0.086	1.43	3.54	238	184	137
0.543	1.3	3.55	238	177	132
0.523	1.37	3.47	202	153	110
1	0.919	3.94	223	171	132
0.973	1.01	3.84	242	190	151
0.614	1.4	3.4	242	185	140
0.439	1.57	3.17	184	135	94
0.455	1.56	3.18	224	171	129
0.748	1.37	3.41	249	191	145
0.659	1.44	3.3	174	125	85
0.562	1.57	3.14	218	165	123
0.779	1.38	3.38	251	190	145
0.807	1.49	3.2	223	171	131
0.88	1.43	3.27	207	156	111
0.74	1.55	3.11	215	166	126
0.817	1.54	3.1	218	170	132
0.804	1.6	3.01	209	165	128
1.28	1.34	3.34	181	136	97
1.06	1.51	3.11	213	169	132
1.36	1.53	3.04	206	165	135
1.54	1.47	3.13	217	174	142
-2.56	0.0865	5.99	162	121	93
-2.31	-0.313	5.8	152	116	100
-2.41	-0.0133	5.89	156	112	87
-2.41	-0.0133	5.89	156	112	87
-1.98	-0.588	5.69	169	137	112
-1.89	-0.207	5.65	144	112	97
-1.97	0.243	5.61	170	126	99
-1.93	0.184	5.6	168	127	99
-1.78	0.493	5.43	176	136	100
-1.71	0.314	5.45	169	124	93
-1.63	0.239	5.42	169	122	92
-1.65	0.26	5.48	177	134	102
-1.55	0.0826	5.43	162	130	115
-1.55	0.0826	5.43	162	130	115
-1.6	0.271	5.39	181	136	105
-1.68	0.508	5.36	170	124	88
-1.68	0.539	5.35	183	138	99
-1.55	0.206	5.42	183	138	107
-1.49	0.0959	5.4	150	122	108
-1.37	-0.0996	5.45	169	143	128
-1.38	0.0556	5.37	160	131	115
-1.41	0.365	5.28	184	141	109
-1.53	0.746	5.16	208	164	127
-1.37	0.412	5.24	181	140	110
-1.17	0.171	5.25	166	139	122
-1.17	0.171	5.25	166	139	122
-1.38	0.813	5.03	177	141	115
-1.22	0.556	5.06	177	136	108
-1.08	0.169	5.17	171	144	127
-1.26	0.877	4.91	181	141	115
-1.17	0.68	4.98	181	146	124
-1.06	0.56	4.98	175	140	118
-0.941	0.294	5.06	148	131	123
-0.941	0.294	5.06	148	131	123
-0.967	0.464	4.97	155	129	114
-1.15	1.01	4.75	196	159	132
-1.15	1.01	4.75	196	159	132
-0.921	0.519	4.92	146	132	119
-0.929	0.561	4.92	120	107	98
-1.01	0.822	4.78	171	140	112
-0.789	0.284	4.99	135	125	115
-0.807	0.426	4.92	111	102	95
-0.807	0.426	4.92	111	102	95
-0.884	0.724	4.77	158	129	111
-0.734	0.48	4.86	106	99	89
-0.734	0.48	4.86	106	99	89
-0.739	0.6	4.8	138	126	114
-0.972	1.23	4.42	181	137	100
-0.695	0.702	4.68	145	129	114
-0.72	0.773	4.67	122	99	81
-0.638	0.832	4.55	148	126	102
-0.638	0.832	4.55	148	126	102
-0.796	1.22	4.31	205	156	113
-0.778	1.21	4.31	202	154	114
-0.546	0.907	4.45	168	133	103
-0.371	-0.0595	3.34	111	105	105
-0.401	0.38	3.83	135	118	110
-0.345	0.0384	3.41	125	115	113
-0.414	0.663	4.11	123	128	124
-0.304	-0.0891	3.23	110	108	113
-0.411	1.11	4.19	200	151	110
-0.477	1.31	4.02	219	170	130
-0.263	0.411	3.7	135	117	107
-0.263	0.411	3.7	135	117	107
-0.303	1.01	4.2	205	157	111
-0.198	0.0195	3.26	118	107	101
-0.193	0.0344	3.27	119	111	109
-0.211	0.532	3.77	144	120	108
-0.211	0.532	3.77	144	120	108
-0.173	0.502	3.71	140	118	105
-0.142	0.536	3.72	140	117	103
-0.142	0.536	3.72	140	117	103
-0.11	0.349	3.53	139	124	129
-0.103	0.094	3.27	36	20	21
-0.103	0.094	3.27	36	20	21
-0.059	0.157	3.32	104	113	86
-0.322	1.46	3.74	108	52	19
-0.0355	0.49	3.62	139	119	110
-0.0355	0.49	3.62	139	119	110
-0.0326	0.281	3.42	17	9	7
-0.023	0.122	3.27	25	15	13
-0.291	1.47	3.7	195	135	99
-0.136	1.25	3.87	211	160	117
0.00893	0.431	3.55	32	18	17
0.0207	0.315	3.44	21	12	7
0.0219	0.427	3.54	137	122	127
0.299	-0.536	3.46	88	111	125
-0.115	1.27	3.87	218	164	117
0.029	0.415	3.53	47	26	23
0.0549	0.0347	3.17	130	117	111
-0.185	1.46	3.66	223	169	123
0.0734	0.131	3.25	27	13	13
0.0734	0.131	3.25	27	13	13
0.102	0.54	3.62	30	15	10
0.0876	0.0297	3.16	33	13	12
-0.155	1.47	3.62	243	182	135
-0.155	1.47	3.62	243	182	135
0.147	0.431	3.52	34	18	18
0.147	0.431	3.52	34	18	18
0.307	0.486	3.58	120	132	94
0.307	0.486	3.58	120	132	94
-0.0357	1.54	3.47	239	185	141
0.422	0.961	4	211	143	78
0.135	1.46	3.49	238	182	135
0.0584	1.55	3.39	224	170	126
0.133	1.55	3.35	242	184	144
1.06	0.638	4.26	211	158	116
0.705	1.44	3.3	242	189	149
0.691	1.47	3.25	225	176	136
0.691	1.47	3.25	225	176	136
0.661	1.58	3.08	194	147	117
1.43	1.1	3.66	218	169	129
1.34	1.54	3.03	194	153	121
1.67	1.43	3.19	217	171	135
1.29	1.68	2.78	184	147	118
-2.7	-0.195	6.03	136	103	86
-2.57	-0.281	5.93	153	115	96
-2.36	-0.115	5.85	157	112	89
-2.12	0.046	5.7	164	118	92
-2.18	0.191	5.72	167	123	96
-2.02	0.0461	5.68	166	121	92
-1.99	-0.017	5.65	172	128	99
-1.91	-0.135	5.62	149	121	107
-1.93	0.291	5.56	163	118	89
-1.86	0.2	5.56	161	119	94
-1.81	0.207	5.53	173	129	100
-1.79	0.231	5.52	162	118	91
-1.84	0.393	5.52	177	134	100
-1.67	0.261	5.43	178	134	105
-1.62	0.362	5.38	170	125	94
-1.58	0.39	5.34	171	126	95
-1.61	0.521	5.3	183	140	106
-1.24	-0.412	5.36	167	139	125
-1.59	0.722	5.22	208	164	125
-1.47	0.496	5.24	168	124	95
-1.46	0.708	5.14	205	161	124
-1.4	0.658	5.11	178	133	94
-1.41	0.685	5.13	213	169	132
-1.51	1.24	4.82	166	120	87
-0.955	-0.00013	5.2	151	137	128
-1.34	1.07	4.83	146	102	73
-1.17	0.679	4.97	182	147	125
-1.23	1	4.8	191	152	121
-0.931	0.277	5.06	157	139	129
-1.09	0.725	4.89	187	153	128
-1.21	1.06	4.74	176	131	100
-1.03	0.625	4.92	158	131	114
-1	0.618	4.92	168	149	134
-0.977	0.701	4.84	175	148	129
-1.03	1.03	4.64	191	154	127
-0.768	0.678	4.75	149	134	115
-0.77	0.741	4.7	141	120	103
-0.889	1.06	4.51	171	126	85
-0.786	1.08	4.44	188	145	110
-0.728	1.21	4.3	191	146	107
-0.541	0.945	4.43	178	142	108
-0.541	0.945	4.43	178	142	108
-0.362	0.0856	3.48	98	114	87
-0.341	0.355	3.73	129	114	111
-0.285	0.405	3.72	133	116	109
-0.285	0.405	3.72	133	116	109
-0.257	0.445	3.73	140	120	111
-0.217	-0.00319	3.25	114	108	108
-0.167	-0.201	3.08	76	100	112
-0.467	1.41	3.9	183	130	80
-0.177	0.0115	3.24	118	109	110
-0.155	0.0583	3.27	123	113	112
-0.4	1.45	3.8	218	169	126
-0.0468	0.296	3.44	124	107	97
-0.0246	0.493	3.62	140	117	109
-0.0214	0.249	3.39	115	95	94
-0.216	1.45	3.67	184	130	84
0.0812	0.0787	3.2	29	14	11
0.0812	0.0787	3.2	29	14	11
0.147	0.235	3.34	149	143	147
0.184	0.193	3.31	150	139	145
0.184	0.193	3.31	150	139	145
0.279	-0.0105	3.13	49	30	24
0.398	0.989	3.99	253	181	123
0.34	0.158	3.31	170	159	163
0.153	1.43	3.51	156	102	55
0.165	1.43	3.5	213	161	114
0.212	1.42	3.54	236	182	135
0.149	1.51	3.4	172	123	83
0.184	1.55	3.3	228	174	130
1.06	0.656	4.25	223	170	130
0.548	1.48	3.29	224	171	131
0.573	1.5	3.24	226	173	129
0.638	1.49	3.24	226	174	134
1.51	0.749	4.11	233	178	137
1.18	1.04	3.77	214	165	125
1.18	1.06	3.72	239	185	147
1.03	1.34	3.39	211	163	125
1.36	1.08	3.68	242	189	149
0.935	1.52	3.11	217	172	133
0.935	1.52	3.11	217	172	133
0.814	1.62	2.97	203	160	126
1.21	1.39	3.27	174	128	92
-2.85	-0.292	6.04	129	95	83
-2.5	-0.193	5.92	137	98	83
-2.44	0.0764	5.9	169	130	101
-2.22	-0.0654	5.77	166	124	99
-2.24	-0.0106	5.79	164	120	95
-2.22	0.0608	5.76	165	121	94
-2.04	-0.0564	5.66	170	126	99
-1.92	-0.166	5.65	136	107	91
-1.92	-0.166	5.65	136	107	91
-1.9	-0.0742	5.66	151	110	92
-1.82	-0.0897	5.61	151	123	111
-1.74	0.214	5.48	165	120	91
-1.82	0.416	5.48	177	134	100
-1.63	0.335	5.4	180	135	102
-1.28	-0.468	5.45	156	132	122
-1.47	0.495	5.24	168	124	95
-1	-0.436	5.37	167	139	127
-1.16	0.801	4.89	182	148	123
-1.14	0.755	4.9	173	139	114
-1.11	0.738	4.91	177	141	117
-0.858	0.186	5.06	126	105	100
-0.995	0.593	4.93	153	134	120
-1.13	1.16	4.6	140	94	61
-1.04	1.11	4.59	190	148	108
-1.04	1.22	4.48	180	132	94
-1.01	1.2	4.48	154	105	73
-0.385	-0.657	3.5	50	78	92
-0.876	1.05	4.53	187	147	112
-0.974	1.39	4.26	179	136	101
-0.406	0.43	3.88	130	111	105
-0.253	0.113	3.4	77	62	57
-0.169	-0.00403	3.22	44	40	41
-0.188	0.802	3.99	65	86	67
-0.132	0.315	3.51	141	130	138
-0.13	0.46	3.64	28	4	2
-0.0961	0.508	3.67	143	121	110
-0.355	1.54	3.65	214	160	122
0.0199	0.271	3.4	144	134	143
0.0273	0.465	3.57	150	133	139
0.0695	0.297	3.41	111	95	80
0.0672	0.0553	3.18	141	122	115
0.0926	0.238	3.35	20	6	5
0.0926	0.238	3.35	20	6	5
-0.163	1.49	3.61	234	181	139
-0.163	1.49	3.61	234	181	139
0.159	0.219	3.33	144	124	125
0.159	0.219	3.33	144	124	125
0.24	-0.0101	3.13	37	19	15
0.28	0.209	3.33	166	155	161
0.28	0.209	3.33	166	155	161
0.109	1.52	3.39	209	165	126
0.212	1.42	3.54	232	178	131
0.987	0.532	4.39	227	170	127
0.963	0.6	4.3	220	167	125
1.21	0.355	4.54	206	156	119
0.255	1.54	3.3	142	94	56
0.479	1.57	3.17	225	172	130
0.712	1.43	3.28	223	168	129
0.876	1.42	3.29	233	179	133
0.783	1.57	3.08	172	128	83
2.12	0.552	4.4	218	171	145
2.21	1.01	3.79	179	144	122
-2.86	-0.0995	6.11	167	133	108
-2.63	-0.17	5.99	142	107	88
-2.51	-0.115	5.9	148	110	89
-2.47	0.0121	5.94	152	112	87
-2.19	-0.0917	5.74	159	115	90
-1.93	-0.288	5.64	142	113	99
-2.03	0.0727	5.66	173	129	102
-2.04	0.111	5.67	156	111	88
-1.94	0.0851	5.61	161	114	88
-1.46	-0.505	5.51	157	130	119
-1.37	-0.532	5.52	161	138	130
-1.38	-0.0423	5.42	181	149	128
-1.23	-0.0733	5.36	175	148	131
-1.08	-0.186	5.32	188	157	137
-1.34	0.782	5.01	154	117	90
-0.977	-0.143	5.23	185	154	134
-1.29	0.883	4.92	155	109	83
-1.26	0.934	4.87	182	147	119
-1.05	0.853	4.78	181	145	119
-1.06	1.18	4.54	172	128	93
-0.77	1.32	4.2	201	154	112
-0.383	0.445	3.86	119	104	99
-0.337	0.203	3.57	105	119	93
-0.662	1.48	3.94	158	108	71
-0.16	0.137	3.36	106	115	88
-0.173	0.433	3.65	140	120	109
-0.105	0.535	3.7	143	119	109
-0.0851	0.165	3.34	110	121	89
-0.0813	0.352	3.51	146	135	143
-0.266	1.35	3.83	214	158	109
0.0492	0.458	3.56	47	32	29
0.0492	0.458	3.56	47	32	29
0.0643	0.393	3.5	81	64	57
0.109	0.216	3.33	153	143	151
0.116	0.287	3.4	156	146	154
-0.165	1.54	3.52	216	162	116
0.169	0.0889	3.2	155	148	155
0.423	1.31	3.58	233	173	123
0.518	1.21	3.67	208	151	108
0.574	1.23	3.63	231	177	131
1.47	0.363	4.56	231	178	144
0.972	0.941	3.91	221	169	130
2.25	0.574	4.39	209	165	140
0.954	1.53	3.07	176	132	95
-2.13	0.113	5.72	167	125	100
-1.85	0.162	5.56	177	134	100
-1.08	-0.572	5.41	165	145	138
-1.37	0.519	5.16	171	126	97
-1.37	0.519	5.16	171	126	97
-1.06	1.06	4.64	194	155	122
-0.352	0.0197	3.41	124	115	110
0.725	-1.87	5.14	168	198	234
-0.173	-0.167	3.07	44	50	48
-0.0193	-0.133	3.03	179	139	127
0.0697	0.783	3.85	164	145	147
0.0697	0.783	3.85	164	145	147
0.123	0.00118	3.13	155	149	159
0.202	-0.0127	3.12	157	150	158
0.202	-0.0127	3.12	157	150	158
1.87	0.643	4.24	229	176	142
2.3	0.6	4.32	205	163	138
1.4	1.44	3.19	215	171	136
1.4	1.44	3.19	215	171	136
-1.27	-0.148	5.38	150	123	112
-0.317	0.67	3.99	52	83	65
0.0384	0.302	3.42	91	73	63
0.0396	0.352	3.47	155	145	153
0.521	1.52	3.24	160	111	78
1.21	1.08	3.7	221	172	132
-1.48	0.819	5.07	221	172	132
-1.32	1.15	4.71	175	132	98
-0.267	0.405	3.7	136	118	106
-0.00376	0.688	3.78	160	144	147
0.00909	1.05	4.06	236	175	121
0.201	-0.0533	3.09	58	91	74
0.317	-0.0297	3.15	166	159	166
-0.27	-0.0884	3.22	129	132	151
-0.176	0.228	3.46	147	141	151
0.164	-0.0363	3.11	48	87	69
-1.2	0.0364	5.31	179	148	130
